# .PCD v0.7 - Point Cloud Data file format
VERSION 0.7
FIELDS x y z rgb
SIZE 4 4 4 4
TYPE F F F F
COUNT 1 1 1 1
WIDTH 975
HEIGHT 1
VIEWPOINT 0 0 0 1 0 0 0
POINTS 975
DATA ascii
0.0052499999 0.046482101 0.074810497 1.1063307e-038
0.030999999 0.038597599 0.084917501 1.1063307e-038
0.029999999 0.038584299 0.084797397 1.1063307e-038
0.00275 0.046280701 0.072889403 1.1063307e-038
0.064750001 0.097212203 0.076585203 2.341841e-038
0.05525 0.0869909 0.087131299 1.1063307e-038
-0.061500002 0.11936 0.030683899 1.1063307e-038
0.00875 0.118746 0.065807998 1.1063307e-038
0.061000001 0.057105999 0.092426799 1.1063307e-038
-0.01275 0.051036399 0.0511357 1.1063307e-038
0.0017500001 0.046217799 0.072289102 1.1063307e-038
0.055 0.066064298 0.086428501 1.1063307e-038
-0.00025000001 0.046142299 0.071568601 1.1063307e-038
0.052000001 0.045718301 0.087182201 1.1063307e-038
0.050999999 0.083789803 0.089669503 1.1063307e-038
0.054499999 0.066085801 0.086668499 1.1063307e-038
0.066249996 0.0670522 0.090596303 1.1063307e-038
0.058499999 0.057073601 0.091972403 1.1063307e-038
-0.00075000001 0.046117101 0.071328498 1.1063307e-038
0.035750002 0.16620199 0.0214766 1.1063307e-038
0.00875 0.038371 0.076632701 1.1063307e-038
-0.00125 0.046117101 0.071328498 1.1063307e-038
0.0155 0.039379399 0.079512097 1.1063307e-038
-0.0037499999 0.046091899 0.071088403 1.1063307e-038
0.057750002 0.064033002 0.086310104 1.8331226e-040
-0.00075000001 0.038039599 0.0736316 1.8331226e-040
-0.0105 0.12519801 0.032843102 1.1063307e-038
0.052000001 0.0442161 0.085984796 1.1063307e-038
0.044500001 0.060990799 0.090377197 1.1063307e-038
-0.050250001 0.123573 0.044532102 1.8331226e-040
0.052000001 0.097125404 0.086885102 1.1063307e-038
0.05125 0.070977703 0.089004397 1.1063307e-038
-0.035250001 0.143289 0.0361147 1.1063307e-038
-0.020500001 0.036317501 0.051661201 1.1063307e-038
0.04975 0.088506997 0.0898901 1.1063307e-038
-0.032000002 0.047814898 0.0399023 1.1063307e-038
0.0165 0.0380386 0.0798757 1.1063307e-038
0.055500001 0.0458076 0.088022597 1.1063307e-038
0.047249999 0.045973301 0.083098397 1.1063307e-038
0.0735 0.0465229 0.081776001 1.1063307e-038
-0.037500001 0.132576 0.037530001 1.1063307e-038
-0.00875 0.046016399 0.070367999 1.1063307e-038
-0.01125 0.0458779 0.069047198 1.1063307e-038
0.078000002 0.050646301 0.081645802 1.1063307e-038
0.022 0.166905 0.0184294 1.8331226e-040
0.059999999 0.099473901 0.080297098 1.1063307e-038
-0.015 0.145119 0.024811501 1.1063307e-038
-0.01175 0.045840099 0.068686999 1.1063307e-038
-0.0074999998 0.067688897 0.0740683 1.1063307e-038
-0.037500001 0.038362 0.0444922 2.341841e-038
-0.01575 0.045248501 0.0630439 1.8331226e-040
-0.01225 0.111122 0.049527001 1.8331226e-040
-0.01675 0.0449338 0.060042199 2.341841e-038
-0.0195 0.121098 0.037164699 2.341841e-038
0.062249999 0.107962 0.072032899 2.341841e-038
0.014 0.162498 0.0203414 2.341841e-038
-0.034000002 0.151161 0.0350856 1.1063307e-038
0.069250003 0.065762803 0.091392003 1.8331226e-040
-0.034499999 0.15115499 0.034831699 1.8331226e-040
0.0165 0.100885 0.081134804 1.1063307e-038
0.052999999 0.048641399 0.089151204 1.1063307e-038
0.00275 0.115813 0.061618499 1.1063307e-038
-0.0037499999 0.061873801 0.077548496 1.1063307e-038
0.0094999997 0.172833 0.0204487 1.1063307e-038
0.013 0.162494 0.0200876 2.341841e-038
0.070749998 0.0708699 0.087504499 2.341841e-038
0.069750004 0.0708699 0.087504499 2.341841e-038
0.0077499999 0.0355369 0.076039597 2.341841e-038
0.069250003 0.0708597 0.087384596 2.341841e-038
0.022 0.159632 0.0252971 2.341841e-038
0.052749999 0.125348 0.054316599 2.341841e-038
0.01275 0.176521 0.019807201 1.8331226e-040
0.06825 0.053584799 0.091070801 1.8331226e-040
0.055 0.085005596 0.087612301 1.1063307e-038
-0.02775 0.151861 0.034322701 1.1063307e-038
-0.0020000001 0.051231999 0.073837198 1.8331226e-040
0.067249998 0.072845101 0.078746602 1.8331226e-040
0.0097500002 0.098838203 0.081135601 1.8331226e-040
0.044750001 0.105887 0.085682899 1.8331226e-040
0.046 0.109194 0.083765499 1.8331226e-040
-0.032749999 0.0434932 0.0462537 1.8331226e-040
0.056249999 0.0802522 0.087017 1.1063307e-038
-0.03325 0.043454301 0.045873299 1.1063307e-038
0.041250002 0.096633002 0.090337202 1.1063307e-038
-0.033750001 0.043415401 0.045492899 1.1063307e-038
0.042750001 0.120498 0.076220296 1.1063307e-038
-0.01225 0.104384 0.055390202 1.1063307e-038
-0.034249999 0.043389499 0.0452393 1.1063307e-038
-0.03475 0.043363601 0.0449857 1.1063307e-038
-0.01125 0.0680525 0.054154601 1.1063307e-038
0.064750001 0.094535999 0.077663802 1.8331226e-040
0.059250001 0.066642202 0.085348003 2.341841e-038
0.057250001 0.045018699 0.0870637 1.1063307e-038
0.059 0.096888803 0.082813099 1.1063307e-038
0.032249998 0.0392722 0.084795803 1.1063307e-038
-0.018750001 0.097238101 0.0526332 1.1063307e-038
0.017000001 0.180213 0.0191659 1.1063307e-038
0.074000001 0.071371697 0.085464701 2.341841e-038
0.024250001 0.0474892 0.084415801 2.341841e-038
-0.037749998 0.042948801 0.0409282 2.341841e-038
-0.00275 0.046104498 0.071208403 2.341841e-038
0.075000003 0.046282701 0.079494797 2.341841e-038
0.074500002 0.046345901 0.080095097 2.341841e-038
0.067249998 0.057785299 0.092539303 1.1063307e-038
-0.01025 0.036399599 0.071354397 1.1063307e-038
0.055500001 0.044267599 0.086465098 1.1063307e-038
0.062249999 0.066922002 0.088668399 1.1063307e-038
-0.0080000004 0.0519435 0.053175099 1.8331226e-040
0.079499997 0.0645869 0.084989302 1.1063307e-038
-0.036499999 0.133976 0.036638599 1.1063307e-038
-0.0077499999 0.047293201 0.069283597 1.1063307e-038
-0.033 0.038727 0.047917299 1.1063307e-038
0.061250001 0.080018699 0.083900101 1.1063307e-038
0.017750001 0.104113 0.077541299 1.1063307e-038
0.0020000001 0.038825098 0.074470103 1.1063307e-038
-0.01275 0.036265999 0.070153996 1.1063307e-038
0.04225 0.092647098 0.091581799 1.1063307e-038
-0.024 0.069525003 0.046763901 1.1063307e-038
0.067249998 0.095693998 0.074070401 2.341841e-038
-0.021 0.129697 0.037280999 1.1063307e-038
0.01025 0.121467 0.0643721 1.8331226e-040
-0.023250001 0.0517129 0.043568201 1.1063307e-038
-0.035999998 0.0385377 0.0461413 1.8331226e-040
0.061250001 0.082710899 0.083778702 1.8331226e-040
-0.0035000001 0.056695402 0.073226199 1.1063307e-038
-0.0265 0.112702 0.039569002 1.1063307e-038
0.06075 0.082736798 0.0841382 1.1063307e-038
0.060249999 0.082771398 0.084617697 1.1063307e-038
0.0092500001 0.0438402 0.076018304 1.1063307e-038
0.054249998 0.070880003 0.087624498 1.1063307e-038
0.053750001 0.070900299 0.087864503 1.1063307e-038
0.068750001 0.0708597 0.087384596 2.341841e-038
-0.016000001 0.0432695 0.064130403 1.8331226e-040
-0.00125 0.067551099 0.080307603 1.8331226e-040
0.01125 0.048815399 0.083932199 1.8331226e-040
0.029750001 0.039285399 0.084915802 1.1063307e-038
0.01175 0.0425856 0.077222399 1.1063307e-038
0.049249999 0.0545623 0.086320601 1.1063307e-038
-0.0145 0.145105 0.024303701 1.1063307e-038
0.00825 0.176543 -0.037386999 1.1063307e-038
0.050000001 0.083810598 0.090008803 1.1063307e-038
-0.0047499998 0.0513056 0.067711301 1.8331226e-040
-0.0145 0.10357 0.053114999 1.8331226e-040
0.054499999 0.047269799 0.089154199 1.1063307e-038
0.066500001 0.040288899 0.075186796 1.1063307e-038
0.054000001 0.047260799 0.089040697 1.8331226e-040
0.0625 0.063740402 0.091281503 1.8331226e-040
-0.0089999996 0.061737102 0.0535446 1.8331226e-040
-0.01125 0.104425 0.056228399 1.8331226e-040
0.0022499999 0.0353618 0.074479103 1.1063307e-038
-0.0024999999 0.105499 0.063891403 1.1063307e-038
-0.034499999 0.038659401 0.047283001 1.1063307e-038
-0.0024999999 0.055365901 0.073586203 1.1063307e-038
0.055 0.112937 0.075743303 1.1063307e-038
0.050500002 0.047028702 0.0865786 1.1063307e-038
-0.035250001 0.037886001 0.046650801 1.8331226e-040
0.050000001 0.046965498 0.085978299 1.1063307e-038
0.01275 0.117538 0.070475802 1.1063307e-038
0.048999999 0.046851698 0.084897697 1.1063307e-038
0.067249998 0.088955201 0.075988099 2.341841e-038
0.01175 0.0371213 0.0778367 2.341841e-038
0.045000002 0.046687301 0.083336897 2.341841e-038
0.054000001 0.0823621 0.088313602 1.1063307e-038
0.050250001 0.054538298 0.086080499 1.1063307e-038
-0.04575 0.114985 0.0424941 2.341841e-038
-0.046250001 0.114985 0.0424941 2.341841e-038
-0.043000001 0.089873597 0.037762702 2.341841e-038
0.003 0.0560898 0.080911703 2.341841e-038
0.02925 0.17798901 0.016251801 2.341841e-038
-0.01025 0.094920002 0.060896002 2.341841e-038
-0.032749999 0.137494 0.034600701 1.1063307e-038
0.057500001 0.052942298 0.091639899 1.1063307e-038
0.0605 0.066182204 0.087748602 1.8331226e-040
0.076499999 0.068758197 0.0864264 1.1063307e-038
0.061999999 0.057114098 0.092540398 1.8331226e-040
0.075999998 0.0687894 0.086786397 1.1063307e-038
-0.0425 0.121399 0.0435162 1.1063307e-038
0.064499997 0.068900801 0.088099599 1.8331226e-040
-0.0165 0.048852999 0.0504217 1.8331226e-040
0.068999998 0.054269601 0.0910694 1.8331226e-040
-0.037999999 0.035339799 0.0427236 2.341841e-038
-0.01425 0.159918 -0.0049281698 1.1063307e-038
0.044500001 0.12892 0.055507701 2.341841e-038
0.059 0.099527098 0.081255101 1.1063307e-038
0.078249998 0.058621299 0.086074099 1.1063307e-038
0.066749997 0.098407902 0.073471099 1.1063307e-038
-0.026249999 0.0500178 0.040657599 1.1063307e-038
-0.0035000001 0.105458 0.063053302 1.1063307e-038
-0.035500001 0.038578302 0.046521898 1.8331226e-040
-0.036499999 0.069710597 0.0325424 1.1063307e-038
0.076750003 0.070616499 0.084505402 1.8331226e-040
-0.02225 0.054666098 0.0450899 1.8331226e-040
0.023 0.168377 0.0177921 2.341841e-038
-0.045000002 0.107827 0.0290129 2.341841e-038
0.070749998 0.104419 0.056108601 2.341841e-038
0.00125 0.059567802 0.081870899 2.341841e-038
-0.049249999 0.14748 0.0317908 2.341841e-038
-0.0037499999 0.095750302 0.075028501 1.1063307e-038
-0.01175 0.0405121 0.070863098 1.1063307e-038
-0.0185 0.036122199 0.0625894 2.341841e-038
-0.044 0.098148704 0.034083899 1.1063307e-038
-0.003 0.168134 -0.0195293 2.341841e-038
-0.0097500002 0.034944002 0.070757903 1.1063307e-038
0.0094999997 0.0994341 0.079578497 1.1063307e-038
0.0255 0.0440231 0.084183998 1.1063307e-038
-0.01525 0.044004999 0.064488597 2.341841e-038
-0.0125 0.109094 0.0513216 2.341841e-038
0.055750001 0.0562995 0.090724498 1.1063307e-038
-0.047249999 0.103627 0.0189617 2.341841e-038
0.001 0.109714 0.065089099 1.1063307e-038
0.060249999 0.038251702 0.0755523 1.1063307e-038
-0.023499999 0.0537403 0.042681199 1.1063307e-038
-0.034249999 0.040735599 0.0468961 1.1063307e-038
-0.046750002 0.0900736 0.0308914 1.1063307e-038
-0.0074999998 0.039948702 0.072065502 1.1063307e-038
0.02 0.102395 0.083888501 1.1063307e-038
0.0105 0.175778 0.018666601 2.341841e-038
0.078000002 0.067390203 0.086187497 1.1063307e-038
0.055 0.101034 0.083889097 1.1063307e-038
0.02825 0.043451201 0.085266098 1.1063307e-038
0.0080000004 0.17577 -0.036843501 1.1063307e-038
0.072750002 0.097809598 0.062812701 1.8331226e-040
0.057250001 0.059007499 0.090833902 1.1063307e-038
0.015 0.046737898 0.083817102 1.1063307e-038
-0.011 0.0800623 0.0753887 1.1063307e-038
0.0125 0.046624102 0.0827365 1.1063307e-038
-0.041000001 0.076874502 0.033939902 1.1063307e-038
0.049249999 0.050365102 0.085609898 1.1063307e-038
0.0099999998 0.046295401 0.0796149 1.1063307e-038
0.034499999 0.0398941 0.0841939 1.1063307e-038
-0.019750001 0.120399 0.0374179 1.1063307e-038
0.0070000002 0.045814902 0.075052403 1.1063307e-038
0.077749997 0.068053402 0.086066999 1.1063307e-038
0.031500001 0.038584299 0.084797397 1.1063307e-038
0.073749997 0.068273999 0.0887805 1.1063307e-038
0.0155 0.037985399 0.079395503 1.1063307e-038
0.013 0.037865601 0.078315102 1.1063307e-038
0.003 0.0456126 0.073131301 1.1063307e-038
-0.055 0.142372 0.0296406 1.1063307e-038
-0.0092500001 0.139948 0.0216447 1.1063307e-038
0.0020000001 0.045574699 0.072771199 1.1063307e-038
0.02225 0.173549 0.0168943 1.1063307e-038
-0.046750002 0.087176003 0.030377701 1.8331226e-040
0.0115 0.046497699 0.081535898 1.1063307e-038
-0.0060000001 0.137601 0.0166956 1.1063307e-038
0.048250001 0.079143196 0.090580501 1.1063307e-038
-0.0072499998 0.036466401 0.071954601 1.1063307e-038
0.0155 0.099540398 0.0814946 1.1063307e-038
0.039250001 0.166187 0.0202075 1.8331226e-040
0.053750001 0.073600002 0.087981999 1.1063307e-038
0.065499999 0.11363 0.059223998 1.1063307e-038
-0.0022499999 0.111586 0.060300902 1.1063307e-038
0.048250001 0.0560201 0.087158002 1.1063307e-038
0.0017500001 0.155936 0.0226376 1.1063307e-038
0.065250002 0.101163 0.073590398 1.1063307e-038
-0.015 0.0968161 0.057543099 1.1063307e-038
-0.035750002 0.117621 0.038685001 1.1063307e-038
0.048749998 0.0737326 0.090021104 1.1063307e-038
-0.020500001 0.128273 0.0375375 1.1063307e-038
-0.026000001 0.036159199 0.050220601 1.1063307e-038
0.070500001 0.074394003 0.072630197 2.341841e-038
0.00125 0.047617599 0.072405398 1.8331226e-040
0.054249998 0.123978 0.055755001 2.341841e-038
-0.01475 0.037549298 0.069189899 1.1063307e-038
-0.026000001 0.049332801 0.040912699 1.1063307e-038
-0.0115 0.045220699 0.069409303 1.1063307e-038
-0.044500001 0.117152 0.043385498 2.341841e-038
0.052749999 0.074981302 0.088547103 1.8331226e-040
0.028000001 0.123807 0.072509803 1.1063307e-038
-0.013 0.038350001 0.070148401 1.1063307e-038
0.0017500001 0.098562598 0.076225497 1.1063307e-038
-0.055750001 0.119028 0.038432501 1.8331226e-040
-0.048749998 0.113508 0.041349001 2.341841e-038
-0.0165 0.044500001 0.062565602 1.8331226e-040
-0.027249999 0.153276 0.033304799 1.8331226e-040
-0.0175 0.0442724 0.060404401 2.341841e-038
0.058249999 0.043464199 0.085386202 1.1063307e-038
-0.037500001 0.042265501 0.041183598 2.341841e-038
0.0024999999 0.165455 0.0207165 1.1063307e-038
-0.023 0.15251499 0.031528801 1.1063307e-038
-0.00575 0.12341 0.040975701 1.1063307e-038
0.063500002 0.096624397 0.078262098 1.1063307e-038
0.050749999 0.058725901 0.087154701 1.1063307e-038
0.078500003 0.062023502 0.086431697 1.8331226e-040
-0.003 0.037293401 0.073153198 1.8331226e-040
-0.045499999 0.080693901 0.0288525 2.341841e-038
0.0085000005 0.049366999 0.082609802 2.341841e-038
-0.039999999 0.109463 0.032574601 2.341841e-038
0.047499999 0.043778699 0.081902802 2.341841e-038
0.072499998 0.043135401 0.075900003 1.1063307e-038
0.054499999 0.048694301 0.089832202 1.8331226e-040
-0.011 0.0425951 0.070857503 1.8331226e-040
0.069250003 0.044596002 0.083101802 1.8331226e-040
0.027000001 0.169854 0.017535601 1.8331226e-040
-0.04775 0.119354 0.045038901 2.341841e-038
-0.044 0.095378302 0.035225 1.1063307e-038
0.072499998 0.089140497 0.068321601 1.1063307e-038
0.033500001 0.038464502 0.083717003 1.1063307e-038
-0.012 0.042556498 0.070497401 1.1063307e-038
-0.034499999 0.0427089 0.045494899 1.1063307e-038
0.068000004 0.084157102 0.075508699 2.341841e-038
-0.0077499999 0.052586298 0.0525725 1.8331226e-040
-0.048 0.12006 0.0450394 2.341841e-038
-0.043749999 0.096090198 0.035225902 1.1063307e-038
0.053750001 0.077648804 0.088204801 1.1063307e-038
0.055500001 0.076896302 0.087139599 1.8331226e-040
-0.0385 0.0421612 0.040169101 2.341841e-038
-0.062249999 0.119977 0.0286525 1.8331226e-040
0.011 0.172832 0.020321701 1.8331226e-040
0.0265 0.042737599 0.085027598 1.8331226e-040
0.073250003 0.0457194 0.080697097 1.8331226e-040
0.01075 0.037067801 0.077356502 1.1063307e-038
0.041749999 0.125773 0.068319298 1.1063307e-038
-0.030750001 0.048438601 0.039013501 1.1063307e-038
0.070249997 0.046138398 0.084659196 1.1063307e-038
0.075000003 0.0540081 0.087643199 1.1063307e-038
-0.01125 0.124529 0.033987399 1.1063307e-038
0.0105 0.048014302 0.082853302 1.1063307e-038
0.0135 0.177259 0.0198058 1.1063307e-038
0.050500002 0.055249501 0.086319 1.1063307e-038
-0.03325 0.155985 0.0250494 2.341841e-038
0.01575 0.040082902 0.079630397 2.341841e-038
-0.029999999 0.112583 0.0374084 2.341841e-038
0.0605 0.061085898 0.091739297 2.341841e-038
0.00275 0.055388201 0.080793299 2.341841e-038
0.055 0.070166498 0.087145202 1.1063307e-038
0.03475 0.039152902 0.083715402 1.1063307e-038
0.028999999 0.13046101 0.060293801 2.341841e-038
0.017750001 0.17207301 0.017531499 2.341841e-038
0.00050000002 0.155205 0.0223848 1.1063307e-038
0.057750002 0.046539001 0.088588402 1.1063307e-038
-0.045000002 0.111133 0.0368983 1.8331226e-040
-0.03025 0.151876 0.034957401 1.8331226e-040
0.05325 0.081717901 0.088766798 1.8331226e-040
0.060249999 0.109382 0.072990499 2.341841e-038
0.074500002 0.066295899 0.089349598 1.1063307e-038
-0.035 0.113908 0.035631001 2.341841e-038
-0.0040000002 0.10544 0.062694103 2.341841e-038
-0.032249998 0.038049199 0.0481732 2.341841e-038
0.041999999 0.125128 0.070115097 2.341841e-038
0.04975 0.046214599 0.085379601 1.1063307e-038
-0.037 0.036988799 0.044876698 1.8331226e-040
0.065250002 0.070677303 0.085225202 2.341841e-038
-0.0040000002 0.055282801 0.072745502 1.1063307e-038
0.03125 0.173548 0.0166406 1.1063307e-038
0.0285 0.15959901 0.023393201 2.341841e-038
0.0060000001 0.047500499 0.077930398 1.8331226e-040
0.04775 0.0459987 0.083338499 1.1063307e-038
0.046750002 0.045960601 0.082978301 1.1063307e-038
0.017750001 0.170592 0.0172804 1.8331226e-040
0.052250002 0.062819399 0.0877515 1.8331226e-040
-0.022500001 0.13254599 0.036768101 1.8331226e-040
-0.0145 0.0353969 0.068595402 1.1063307e-038
0.052999999 0.0513932 0.089258596 1.1063307e-038
-0.016249999 0.043916099 0.063648202 1.8331226e-040
0.01375 0.12687901 0.058263998 2.341841e-038
-0.059 0.113601 0.0299122 2.341841e-038
0.082500003 0.0651967 0.076707996 2.341841e-038
-0.014 0.15917 -0.0045216298 1.1063307e-038
-0.04225 0.110213 0.033211201 2.341841e-038
0.048999999 0.075755402 0.090131901 2.341841e-038
-0.039500002 0.039241798 0.039414801 2.341841e-038
0.027249999 0.046074901 0.084058903 2.341841e-038
0.02675 0.046062201 0.083938897 2.341841e-038
0.02925 0.046112999 0.084419101 2.341841e-038
0.02575 0.046036799 0.083698697 2.341841e-038
0.074000001 0.0446597 0.077217102 2.341841e-038
0.053750001 0.062719204 0.086671203 1.1063307e-038
-0.0055 0.051844198 0.066148303 2.341841e-038
0.052250002 0.053374801 0.0882321 1.1063307e-038
-0.055750001 0.117608 0.038430899 1.8331226e-040
0.067249998 0.078156203 0.077187002 1.1063307e-038
0.05875 0.053652 0.091979198 1.1063307e-038
0.019750001 0.046024099 0.083578698 1.1063307e-038
0.061250001 0.067948699 0.084867097 1.8331226e-040
0.001 0.15953401 0.0197124 1.1063307e-038
-0.00275 0.070211098 0.0797069 1.1063307e-038
-0.058249999 0.121659 0.033989999 1.8331226e-040
0.054000001 0.067474604 0.0871474 1.8331226e-040
0.059500001 0.042646799 0.084187299 1.1063307e-038
0.064499997 0.105851 0.071075298 2.341841e-038
0.065499999 0.042387299 0.0817862 2.341841e-038
0.02025 0.0459987 0.083338499 2.341841e-038
0.0049999999 0.175768 -0.035627801 2.341841e-038
-0.011 0.0687683 0.054395601 2.341841e-038
-0.035750002 0.149019 0.035597 2.341841e-038
-0.0065000001 0.037186898 0.0721929 2.341841e-038
0.061749998 0.1183 0.053600099 1.8331226e-040
-0.038249999 0.040031798 0.040174101 2.341841e-038
0.017750001 0.046049502 0.083818801 2.341841e-038
0.01725 0.046036799 0.083698697 2.341841e-038
0.01475 0.15889201 0.0250447 2.341841e-038
0.02675 0.128482 0.065084703 1.1063307e-038
-0.01225 0.039083999 0.070506699 1.1063307e-038
0.041250002 0.123154 0.073586904 1.1063307e-038
0.016249999 0.046011399 0.083458602 1.1063307e-038
0.01475 0.045973301 0.083098397 1.1063307e-038
-0.01025 0.065238401 0.053790201 1.1063307e-038
0.053750001 0.045031499 0.087183803 1.1063307e-038
0.056499999 0.059607301 0.089811198 1.1063307e-038
0.067749999 0.107512 0.062454998 1.1063307e-038
0.01325 0.045897201 0.082378 1.1063307e-038
0.048500001 0.055297401 0.086799301 1.1063307e-038
0.01175 0.045668598 0.0802169 1.1063307e-038
0.065499999 0.079008199 0.079464696 1.1063307e-038
0.069499999 0.058400199 0.091743298 1.1063307e-038
-0.035999998 0.039923102 0.045883499 1.8331226e-040
0.00575 0.0450336 0.074213699 1.8331226e-040
0.043499999 0.091972098 0.091582 1.8331226e-040
0.031750001 0.0378429 0.084318899 1.1063307e-038
0.0285 0.048202299 0.084654301 1.1063307e-038
-0.00050000002 0.153743 0.021879099 1.1063307e-038
0.072999999 0.091754504 0.065926 1.1063307e-038
0.0089999996 0.046131 0.078054003 1.1063307e-038
-0.045249999 0.083033599 0.0316502 1.8331226e-040
0.0099999998 0.124766 0.058386799 2.341841e-038
0.013 0.099447399 0.079818003 1.1063307e-038
-0.0080000004 0.089666903 0.076467298 1.1063307e-038
0.052749999 0.115009 0.076101899 1.1063307e-038
0.067000002 0.057105999 0.092426799 1.1063307e-038
-0.035 0.046382401 0.039778799 2.341841e-038
-0.0097500002 0.0446654 0.070731901 2.341841e-038
-0.046250001 0.123573 0.044532102 1.8331226e-040
0.073250003 0.096379802 0.062093899 1.1063307e-038
-0.01025 0.0446527 0.070611797 1.1063307e-038
-0.01125 0.044601899 0.0701316 1.1063307e-038
-0.0049999999 0.134692 0.016826401 1.1063307e-038
-0.0125 0.153724 0.020990601 1.1063307e-038
0.067500003 0.043933101 0.083343498 1.1063307e-038
-0.0077499999 0.144236 0.0193532 1.1063307e-038
-0.0085000005 0.068930201 0.0726289 1.1063307e-038
0.01825 0.046049502 0.083818801 1.1063307e-038
0.0022499999 0.044932 0.073253199 1.1063307e-038
0.0735 0.058295701 0.090267003 1.1063307e-038
0.055 0.047278699 0.089267701 1.1063307e-038
-0.0017500001 0.036626801 0.073395103 1.1063307e-038
-0.00575 0.037893899 0.072311103 1.1063307e-038
-0.0020000001 0.152283 0.021500399 1.1063307e-038
0.043749999 0.169101 0.0161411 1.1063307e-038
0.078249998 0.0613726 0.086672299 1.8331226e-040
0.048 0.0438173 0.082263 1.8331226e-040
0.048 0.127509 0.0556296 2.341841e-038
0.017750001 0.114966 0.075024597 2.341841e-038
-0.0024999999 0.040079501 0.073266 2.341841e-038
-0.0062500001 0.036493201 0.072194703 2.341841e-038
0.0049999999 0.099274598 0.076704398 1.8331226e-040
-0.01175 0.103053 0.056706902 1.8331226e-040
-0.046 0.083628602 0.0302504 2.341841e-038
-0.0032500001 0.167376 -0.0188519 2.341841e-038
0.04775 0.095214799 0.0890944 1.1063307e-038
-0.01525 0.045324001 0.063764296 1.8331226e-040
0.028000001 0.037128001 0.084080502 1.1063307e-038
0.02025 0.169112 0.017283199 2.341841e-038
0.074249998 0.0561934 0.089247897 2.341841e-038
0.064499997 0.0871635 0.079702303 1.8331226e-040
-0.0085000005 0.0518477 0.052214399 1.8331226e-040
-0.034000002 0.112471 0.035374898 2.341841e-038
0.02675 0.039258901 0.084675796 2.341841e-038
-0.0089999996 0.125259 0.034240201 1.1063307e-038
0.064750001 0.057809498 0.092880003 2.341841e-038
-0.03675 0.041845001 0.043975201 2.341841e-038
-0.0295 0.111233 0.0386777 1.1063307e-038
0.079750001 0.054081 0.081517197 1.1063307e-038
0.071000002 0.045169901 0.0820195 1.1063307e-038
0.070500001 0.0452719 0.082979999 1.1063307e-038
0.0135 0.045118898 0.081539303 1.1063307e-038
-0.0022499999 0.053383 0.074552298 1.1063307e-038
-0.01925 0.156976 -0.00060421199 1.1063307e-038
-0.02025 0.081864201 0.052738499 1.1063307e-038
0.0285 0.16545901 0.0209704 1.1063307e-038
0.0020000001 0.12667499 0.033729799 1.1063307e-038
0.0085000005 0.119409 0.0649703 1.1063307e-038
-0.056000002 0.113724 0.032199699 1.1063307e-038
0.048749998 0.0545744 0.086440697 1.1063307e-038
0.05325 0.043502901 0.0857464 1.1063307e-038
0.048250001 0.054586399 0.086560801 1.1063307e-038
-0.0425 0.105088 0.031042401 1.1063307e-038
0.072499998 0.0450041 0.080458701 1.1063307e-038
0.02475 0.157386 0.0226356 2.341841e-038
-0.0099999998 0.043983798 0.0708538 2.341841e-038
-0.00875 0.118007 0.046308398 2.341841e-038
-0.02675 0.127626 0.039189801 2.341841e-038
-0.0040000002 0.126735 0.035126898 1.1063307e-038
0.039999999 0.16691799 0.0195716 1.1063307e-038
0.074500002 0.0595994 0.089697599 1.1063307e-038
0.065250002 0.109065 0.066046797 1.1063307e-038
-0.035250001 0.0839689 0.043482501 1.1063307e-038
0.054000001 0.0458076 0.088022597 1.1063307e-038
-0.0085000005 0.061747901 0.053664599 1.1063307e-038
0.069750004 0.075152703 0.073589697 2.341841e-038
0.00050000002 0.048410598 0.073364198 1.8331226e-040
0.026249999 0.16182999 0.024785001 2.341841e-038
0.063249998 0.068228401 0.088100202 1.8331226e-040
0.075000003 0.064959504 0.089464501 1.1063307e-038
-0.01125 0.049350299 0.062191501 1.8331226e-040
0.01075 0.045503501 0.0786561 1.1063307e-038
0.0275 0.039986499 0.085034199 1.1063307e-038
0.032499999 0.039960101 0.084794097 1.1063307e-038
-0.037250001 0.131868 0.037785299 1.1063307e-038
0.029999999 0.045476001 0.084900998 1.1063307e-038
0.0024999999 0.045574699 0.072771199 1.1063307e-038
0.08275 0.060650099 0.0789892 1.8331226e-040
0.057500001 0.060951199 0.089809597 1.1063307e-038
-0.059 0.12539899 0.037415501 1.1063307e-038
-0.01325 0.11921 0.042116798 1.1063307e-038
0.052000001 0.052680101 0.088120103 1.1063307e-038
0.05675 0.0802342 0.086777203 1.1063307e-038
0.023499999 0.0452592 0.08286 1.1063307e-038
-0.0145 0.046733599 0.057154398 2.341841e-038
0.021500001 0.045208201 0.082379699 2.341841e-038
-0.01225 0.079183698 0.072751299 1.1063307e-038
0.050500002 0.077070303 0.089677401 1.1063307e-038
0.057750002 0.041880399 0.083468601 1.1063307e-038
0.054000001 0.0593642 0.0867939 1.8331226e-040
0.0175 0.045208201 0.082379699 1.8331226e-040
0.059 0.044241801 0.086224899 1.1063307e-038
-0.03675 0.0430266 0.041689001 2.341841e-038
0.02025 0.163249 0.021228399 2.341841e-038
0.066749997 0.069588199 0.088325702 1.8331226e-040
0.015 0.0452209 0.082499802 1.8331226e-040
-0.0097500002 0.160238 0.0176803 1.1063307e-038
0.00875 0.0438146 0.075778097 1.1063307e-038
-0.02925 0.14900599 0.035089198 1.1063307e-038
0.0145 0.045208201 0.082379699 1.1063307e-038
-0.02475 0.127621 0.039062802 1.1063307e-038
-0.0020000001 0.126725 0.034872901 1.1063307e-038
0.067249998 0.099703699 0.0720338 1.1063307e-038
-0.01425 0.11916 0.041100498 1.1063307e-038
0.0125 0.044787299 0.078417704 1.1063307e-038
-0.02825 0.14898901 0.034454498 1.1063307e-038
0.054499999 0.0528493 0.090391003 1.1063307e-038
0.0060000001 0.0443919 0.074695803 1.1063307e-038
-0.018750001 0.039639 0.0628196 2.341841e-038
0.028750001 0.175027 0.016384101 1.8331226e-040
0.077 0.052305602 0.0844042 1.8331226e-040
-0.01075 0.0419266 0.071099497 1.8331226e-040
-0.048500001 0.084543303 0.023886601 1.8331226e-040
-0.0065000001 0.059243701 0.071305901 1.8331226e-040
0.063000001 0.077882402 0.082462497 1.8331226e-040
0.0067500002 0.120021 0.062696397 1.1063307e-038
-0.043249998 0.105749 0.0301535 1.1063307e-038
-0.048749998 0.095199801 0.0223768 2.341841e-038
-0.045000002 0.103484 0.028242599 2.341841e-038
-0.01125 0.040525202 0.070983201 2.341841e-038
0.068000004 0.043881599 0.082863301 2.341841e-038
-0.0105 0.065944701 0.053911299 2.341841e-038
-0.0032500001 0.1102 0.060420301 1.1063307e-038
-0.025250001 0.11207 0.040966298 1.1063307e-038
-0.044500001 0.096732199 0.034209199 1.1063307e-038
0.049249999 0.087176703 0.090117797 1.1063307e-038
-0.014 0.043664899 0.067852303 1.1063307e-038
0.068000004 0.071422003 0.086064503 2.341841e-038
-0.04775 0.104902 0.016167801 2.341841e-038
0.047499999 0.0423094 0.081065901 2.341841e-038
-0.0015 0.035933699 0.073396899 2.341841e-038
-0.01675 0.043865301 0.0631679 1.8331226e-040
0.061500002 0.107348 0.073589399 2.341841e-038
0.061000001 0.067358598 0.0858275 1.8331226e-040
-0.0077499999 0.150103 0.0213765 1.8331226e-040
-0.0074999998 0.0371603 0.071952797 1.8331226e-040
-0.04025 0.103257 0.0359984 1.8331226e-040
-0.0065000001 0.094935998 0.072872803 1.8331226e-040
-0.0145 0.0396346 0.069184303 1.1063307e-038
0.017999999 0.172814 0.017657001 1.1063307e-038
0.065750003 0.097136602 0.075267799 2.341841e-038
0.055 0.099693201 0.084248997 2.341841e-038
-0.041000001 0.073781103 0.0306358 1.8331226e-040
0.057250001 0.089588903 0.085691497 1.1063307e-038
0.0605 0.039221 0.078071497 1.1063307e-038
0.053750001 0.050759301 0.089941204 1.1063307e-038
0.0062500001 0.12 0.062098 1.1063307e-038
-0.043749999 0.105718 0.029645 1.1063307e-038
-0.060249999 0.1216 0.032719702 1.1063307e-038
0.028750001 0.037869599 0.084559001 1.1063307e-038
0.064750001 0.070626602 0.084625401 1.8331226e-040
0.0145 0.046725199 0.083697103 1.8331226e-040
0.046 0.123719 0.069757402 1.1063307e-038
0.063249998 0.094643898 0.079460397 1.1063307e-038
0.061500002 0.117738 0.057310101 1.1063307e-038
0.068000004 0.058440499 0.092311099 1.8331226e-040
0.052499998 0.120881 0.067483597 2.341841e-038
0.04425 0.127033 0.063530304 2.341841e-038
0.01575 0.10019 0.080895603 1.1063307e-038
-0.0070000002 0.035772599 0.0719565 1.1063307e-038
0.077749997 0.069318399 0.085106201 1.1063307e-038
0.032749999 0.131116 0.0583774 1.1063307e-038
-0.0024999999 0.053907901 0.072869301 1.1063307e-038
-0.01125 0.080743402 0.0753887 1.1063307e-038
-0.012 0.0355982 0.070395999 1.1063307e-038
-0.037 0.042330801 0.041817602 2.341841e-038
-0.043249998 0.117853 0.043258999 1.1063307e-038
0.067249998 0.041176699 0.076985799 1.1063307e-038
0.044500001 0.118495 0.077656999 1.1063307e-038
-0.011 0.11453 0.047195598 1.1063307e-038
-0.0037499999 0.070140198 0.0788671 1.1063307e-038
0.070249997 0.0604304 0.0919673 1.8331226e-040
-0.0097500002 0.049472801 0.063392296 1.1063307e-038
-0.0125 0.0355579 0.070035897 1.1063307e-038
0.047499999 0.0945623 0.089546897 1.1063307e-038
-0.056249999 0.119016 0.038178399 1.8331226e-040
-0.02275 0.054559901 0.043949399 1.8331226e-040
-0.028999999 0.111248 0.038931999 1.1063307e-038
0.078000002 0.066064298 0.086428501 1.1063307e-038
-0.037999999 0.040768001 0.040426102 2.341841e-038
-0.03325 0.038008399 0.047792599 2.341841e-038
-0.0024999999 0.108207 0.062455099 1.1063307e-038
-0.034499999 0.0413884 0.0463867 1.1063307e-038
0.073749997 0.043788999 0.075538002 1.1063307e-038
0.01225 0.17652 0.019553401 2.341841e-038
0.02775 0.0460876 0.084178999 2.341841e-038
0.073250003 0.0438402 0.076018304 1.1063307e-038
0.0052499999 0.051470499 0.082964897 1.1063307e-038
0.0305 0.038597599 0.084917501 1.1063307e-038
-0.0044999998 0.065089501 0.075507998 1.1063307e-038
-0.021749999 0.064767502 0.048390798 1.1063307e-038
0.0089999996 0.037692599 0.076754503 1.1063307e-038
0.070749998 0.044378199 0.0810607 1.1063307e-038
0.061999999 0.098040298 0.079099901 1.1063307e-038
0.028999999 0.037141401 0.084200501 1.8331226e-040
0.06825 0.044672899 0.083822101 1.8331226e-040
0.067749999 0.044711299 0.0841823 1.8331226e-040
-0.01375 0.16289701 -0.0087144095 1.8331226e-040
-0.01325 0.116518 0.044782601 1.1063307e-038
0.052999999 0.075653598 0.088546403 1.8331226e-040
-0.020500001 0.081090398 0.051658601 1.8331226e-040
0.04575 0.180951 0.0112984 1.8331226e-040
0.059 0.112729 0.0708353 1.8331226e-040
0.052749999 0.058679398 0.0866744 1.8331226e-040
0.0052499999 0.049796201 0.080086499 1.8331226e-040
0.05875 0.045018699 0.0870637 1.1063307e-038
-0.01075 0.082174703 0.076347597 1.1063307e-038
-0.011 0.0370671 0.071112499 1.1063307e-038
0.059999999 0.066085801 0.086668499 1.8331226e-040
0.052749999 0.056103598 0.087998599 1.1063307e-038
0.056249999 0.045044299 0.087303899 1.1063307e-038
0.012 0.046573501 0.082256302 1.1063307e-038
-0.0080000004 0.163629 -0.011551 2.341841e-038
0.018750001 0.10415 0.078259803 2.341841e-038
-0.02575 0.129043 0.038806301 2.341841e-038
0.066249996 0.101093 0.072273202 1.1063307e-038
0.054249998 0.069514103 0.087385699 1.1063307e-038
-0.027249999 0.154649 0.030255901 1.8331226e-040
-0.0052499999 0.0783391 0.0795848 1.8331226e-040
0.00025000001 0.154475 0.022132 1.1063307e-038
0.082999997 0.0584874 0.077668898 1.1063307e-038
0.062749997 0.073139198 0.0823448 1.1063307e-038
0.01825 0.104138 0.078020297 1.1063307e-038
0.06425 0.077113099 0.081263803 1.1063307e-038
-0.0092500001 0.065259397 0.054030199 1.1063307e-038
0.054749999 0.0450572 0.087423898 1.1063307e-038
-0.0185 0.092455402 0.054667201 1.1063307e-038
-0.057500001 0.12980001 0.039820999 1.1063307e-038
0.066 0.082983598 0.078145303 1.8331226e-040
-0.01075 0.065228 0.053670298 1.8331226e-040
0.062749997 0.113158 0.0646106 1.1063307e-038
0.05325 0.045018699 0.0870637 1.1063307e-038
0.01325 0.16763701 0.017793501 1.8331226e-040
-0.01475 0.040303599 0.068942301 1.1063307e-038
0.048500001 0.106501 0.084365502 1.1063307e-038
0.054749999 0.0708597 0.087384596 1.1063307e-038
0.072499998 0.052756201 0.089142002 1.1063307e-038
0.0089999996 0.175771 -0.037654001 1.1063307e-038
0.041250002 0.12839399 0.061972499 2.341841e-038
0.052250002 0.044993099 0.086823598 2.341841e-038
0.011 0.16987 0.019312199 1.1063307e-038
0.047249999 0.050290901 0.084889501 1.1063307e-038
0.029999999 0.177248 0.016253101 1.1063307e-038
0.027249999 0.163275 0.023005201 1.8331226e-040
-0.01125 0.0391366 0.070986897 1.8331226e-040
0.046750002 0.0444935 0.082141303 1.8331226e-040
0.031750001 0.17798799 0.015998101 1.8331226e-040
0.045249999 0.0444935 0.082141303 1.8331226e-040
-0.032000002 0.0454458 0.044599399 1.8331226e-040
0.063749999 0.060486101 0.092762001 1.8331226e-040
0.024 0.1611 0.025167201 2.341841e-038
0.048 0.052439801 0.085725099 1.1063307e-038
-0.033750001 0.0350352 0.046405401 1.1063307e-038
0.046999998 0.052476399 0.086085297 1.1063307e-038
-0.012 0.048762798 0.063274197 1.8331226e-040
-0.046999998 0.152307 0.0225159 2.341841e-038
0.055500001 0.105015 0.081851698 1.1063307e-038
0.069499999 0.041868199 0.076984003 1.1063307e-038
0.0077499999 0.16174801 0.019581299 2.341841e-038
0.063000001 0.065044798 0.090712398 2.341841e-038
0.050000001 0.060848199 0.088333897 2.341841e-038
0.0072499998 0.17062099 0.0207067 1.1063307e-038
0.00025000001 0.049215 0.074442998 1.8331226e-040
-0.0052499999 0.052949801 0.070229203 2.341841e-038
0.018750001 0.128337 0.0599376 2.341841e-038
0.02925 0.044801001 0.085022703 2.341841e-038
-0.041000001 0.091463 0.040054999 2.341841e-038
-0.037250001 0.073618203 0.0371162 1.1063307e-038
0.04775 0.097877197 0.0881887 1.1063307e-038
0.06425 0.085162498 0.080182202 1.1063307e-038
0.034499999 0.16252699 0.0222452 2.341841e-038
-0.0085000005 0.14352401 0.0198621 2.341841e-038
0.03025 0.044813801 0.085142799 2.341841e-038
-0.033750001 0.155977 0.0246686 2.341841e-038
0.05325 0.064120598 0.087270297 2.341841e-038
0.029750001 0.044813801 0.085142799 2.341841e-038
0.028750001 0.0447882 0.084902696 2.341841e-038
0.02775 0.0447753 0.0847826 2.341841e-038
0.065750003 0.093130201 0.077065296 1.8331226e-040
-0.0035000001 0.066588603 0.077068001 1.8331226e-040
0.05675 0.106939 0.079336502 1.1063307e-038
-0.0115 0.0384291 0.070868701 1.1063307e-038
-0.021749999 0.113535 0.041857399 1.1063307e-038
0.00125 0.0972948 0.078022301 1.1063307e-038
-0.032749999 0.047192302 0.040791102 1.1063307e-038
0.072999999 0.0482524 0.085134603 1.1063307e-038
0.064499997 0.089844897 0.079222403 1.1063307e-038
-0.052499998 0.110955 0.033720698 1.1063307e-038
0.051750001 0.0519852 0.088008203 1.1063307e-038
-0.0085000005 0.053241599 0.05209 1.1063307e-038
0.01175 0.125493 0.059103802 2.341841e-038
0.057 0.079542898 0.086538002 1.1063307e-038
0.0085000005 0.047788698 0.080692001 1.1063307e-038
0.064750001 0.071667001 0.080906101 1.1063307e-038
0.050000001 0.122287 0.068201698 2.341841e-038
-0.01375 0.0376155 0.069790103 1.1063307e-038
0.078000002 0.055093799 0.084757902 1.1063307e-038
-0.0032500001 0.054613199 0.072987497 1.1063307e-038
-0.0055 0.133334 0.0194951 1.1063307e-038
0.01925 0.0444423 0.081661098 1.1063307e-038
0.0535 0.0486678 0.089491703 1.1063307e-038
0.01825 0.0444167 0.081420898 1.1063307e-038
0.052250002 0.105774 0.083407901 1.1063307e-038
0.050749999 0.060117599 0.087633803 1.1063307e-038
0.01575 0.114927 0.074066997 1.1063307e-038
-0.0044999998 0.040027201 0.072785802 1.1063307e-038
0.059749998 0.074674897 0.0846228 1.1063307e-038
0.017750001 0.0444167 0.081420898 1.1063307e-038
-0.01375 0.038992099 0.069666304 1.1063307e-038
0.072499998 0.0864048 0.068439797 1.1063307e-038
0.067500003 0.108207 0.062455099 1.1063307e-038
0.01725 0.0444295 0.081541002 1.1063307e-038
0.076750003 0.051592998 0.0841657 1.1063307e-038
0.01675 0.0444551 0.081781097 1.1063307e-038
0.041250002 0.093978599 0.091242403 1.1063307e-038
0.077249996 0.0529937 0.084402598 1.1063307e-038
-0.0047499998 0.111395 0.055871598 1.1063307e-038
-0.041000001 0.078428298 0.035719998 1.1063307e-038
-0.011 0.054577298 0.051492002 1.1063307e-038
0.057250001 0.052249301 0.0915277 1.1063307e-038
-0.035500001 0.10829 0.036894701 1.1063307e-038
0.0044999998 0.047350101 0.076489598 1.8331226e-040
0.0097500002 0.0438659 0.076258399 1.8331226e-040
0.061749998 0.041763101 0.082388103 1.8331226e-040
-0.017750001 0.097291902 0.0535913 1.1063307e-038
-0.0044999998 0.16662399 -0.017229499 1.8331226e-040
0.062749997 0.102644 0.0756258 2.341841e-038
0.07175 0.087170497 0.069638297 1.1063307e-038
0.052749999 0.107095 0.082569197 1.1063307e-038
0.083499998 0.065035999 0.074908003 1.1063307e-038
0.025250001 0.043347899 0.084305704 1.1063307e-038
0.058249999 0.065326102 0.085708998 2.341841e-038
-0.043249998 0.108609 0.030158199 2.341841e-038
0.032249998 0.037802801 0.083958797 1.1063307e-038
-0.054000001 0.14379901 0.029130399 1.1063307e-038
0.048749998 0.096521899 0.088189498 1.1063307e-038
-0.0020000001 0.072482698 0.082585 1.1063307e-038
-0.016249999 0.0425593 0.064012296 1.8331226e-040
0.064750001 0.064443097 0.091734298 1.1063307e-038
0.00075000001 0.053732 0.078034803 1.1063307e-038
0.0040000002 0.036134899 0.0751976 1.1063307e-038
-0.032749999 0.0394319 0.047915101 1.1063307e-038
0.064999998 0.105821 0.070476599 1.8331226e-040
-0.0024999999 0.0480255 0.069641903 1.1063307e-038
0.068750001 0.088830099 0.0740714 1.1063307e-038
0.059749998 0.078741498 0.084859997 1.1063307e-038
0.066749997 0.043166999 0.082624897 1.1063307e-038
0.066249996 0.043166999 0.082624897 1.1063307e-038
-0.037 0.077375203 0.0400417 1.1063307e-038
0.0175 0.123623 0.066765599 1.1063307e-038
-0.00575 0.035078801 0.071958303 1.1063307e-038
-0.0067500002 0.0350518 0.071718298 1.1063307e-038
0.052499998 0.0540778 0.088457599 1.1063307e-038
0.050250001 0.105803 0.0840066 1.1063307e-038
0.052499998 0.063491903 0.087750897 1.1063307e-038
0.063749999 0.053652 0.091979198 1.1063307e-038
-0.039250001 0.074824497 0.034702301 1.1063307e-038
0.066 0.065106697 0.091619901 1.1063307e-038
-0.035999998 0.077489898 0.041439999 1.1063307e-038
-0.01475 0.042943601 0.067614101 1.1063307e-038
-0.031750001 0.154652 0.0303829 1.1063307e-038
-0.00575 0.054279398 0.069625102 1.8331226e-040
0.057250001 0.041906498 0.083708704 1.8331226e-040
0.028750001 0.047476601 0.084295698 1.8331226e-040
0.05675 0.077522703 0.086539596 1.1063307e-038
0.022500001 0.127746 0.063888498 1.1063307e-038
0.040750001 0.124474 0.0715518 1.1063307e-038
-0.031750001 0.047317199 0.042058598 1.1063307e-038
-0.017750001 0.042431202 0.062811702 1.8331226e-040
0.042750001 0.12966 0.056703601 1.8331226e-040
0.052749999 0.087081902 0.088535197 1.1063307e-038
0.035 0.121187 0.076339804 1.1063307e-038
0.052250002 0.087095402 0.0887613 1.1063307e-038
0.016249999 0.112246 0.075623699 1.1063307e-038
0.012 0.041933101 0.077584296 1.1063307e-038
0.034000002 0.127845 0.067359596 1.8331226e-040
0.045000002 0.093278199 0.0907906 1.8331226e-040
0.048749998 0.099187799 0.087362997 1.1063307e-038
0.067749999 0.057769202 0.092312098 1.1063307e-038
0.0077499999 0.123989 0.056113999 2.341841e-038
0.057250001 0.048 0.089720197 1.1063307e-038
-0.045499999 0.096609898 0.032428201 1.1063307e-038
-0.01175 0.036332801 0.0707542 1.1063307e-038
0.043249998 0.092634402 0.091355801 1.1063307e-038
0.0145 0.099480599 0.080416799 1.1063307e-038
0.052000001 0.063521802 0.088104501 1.1063307e-038
0.0037499999 0.172066 0.016516401 2.341841e-038
-0.00825 0.034997899 0.071238101 2.341841e-038
0.037999999 0.16545901 0.0209704 1.8331226e-040
0.052499998 0.072964601 0.0885491 1.1063307e-038
0.02225 0.12707099 0.064846903 1.1063307e-038
0.039999999 0.123814 0.072749101 1.1063307e-038
-0.037999999 0.042200301 0.040549502 2.341841e-038
0.050999999 0.118339 0.073468 1.1063307e-038
-0.040750001 0.082241699 0.039410099 1.1063307e-038
0.07175 0.0459099 0.082498103 1.1063307e-038
-0.034000002 0.041428 0.046767201 1.1063307e-038
-0.032499999 0.151164 0.035212498 1.1063307e-038
0.01125 0.0473129 0.082734898 1.1063307e-038
0.03325 0.037735999 0.083358601 1.1063307e-038
0.068750001 0.0409422 0.074824803 1.8331226e-040
0.06075 0.084086902 0.084137402 1.1063307e-038
0.077500001 0.053681701 0.0844009 1.1063307e-038
0.0099999998 0.0994341 0.079578497 1.1063307e-038
0.018999999 0.045297399 0.083220102 1.1063307e-038
-0.041499998 0.091406703 0.0392914 1.1063307e-038
-0.03325 0.0407754 0.047276601 1.1063307e-038
0.064499997 0.092541799 0.078622602 1.1063307e-038
-0.0089999996 0.053241599 0.05209 1.1063307e-038
0.0042500002 0.17808899 -0.038339 1.1063307e-038
0.0097500002 0.037027702 0.076996401 1.1063307e-038
0.046500001 0.046674699 0.083216801 1.1063307e-038
-0.046750002 0.10644 0.0176969 2.341841e-038
0.07175 0.068327203 0.089574099 1.1063307e-038
0.035750002 0.129821 0.062688902 2.341841e-038
0.069499999 0.045373999 0.083940499 2.341841e-038
0.069250003 0.063131601 0.092190199 2.341841e-038
0.063500002 0.109838 0.067842603 1.8331226e-040
0.080499999 0.060415 0.083671398 1.1063307e-038
0.049249999 0.104485 0.084845401 1.1063307e-038
-0.01425 0.036159098 0.069193698 1.1063307e-038
-0.031500001 0.035948001 0.048299801 1.1063307e-038
0.026000001 0.162552 0.0238951 2.341841e-038
0.063500002 0.068841301 0.087386303 2.341841e-038
0.067500003 0.059806999 0.092649601 1.8331226e-040
0.064999998 0.103169 0.072512403 2.341841e-038
-0.0020000001 0.058602799 0.078869604 2.341841e-038
0.067000002 0.043971699 0.083703697 2.341841e-038
0.066500001 0.0440103 0.084063902 2.341841e-038
0.00275 0.16619299 0.020715101 1.1063307e-038
0.063249998 0.097301699 0.078142099 1.1063307e-038
0.0125 0.169864 0.0186777 1.1063307e-038
-0.0017500001 0.067488298 0.079587698 1.1063307e-038
0.057750002 0.084239602 0.086294599 1.1063307e-038
-0.012 0.10911 0.0516808 1.1063307e-038
0.058499999 0.044241801 0.086224899 1.1063307e-038
0.01225 0.15298299 0.020356899 1.1063307e-038
-0.0062500001 0.053862099 0.065421902 2.341841e-038
-0.015 0.045984 0.063402101 1.8331226e-040
0.054000001 0.044280399 0.086585097 1.8331226e-040
0.072999999 0.072591498 0.083904497 2.341841e-038
-0.056249999 0.114465 0.032709099 1.1063307e-038
0.048 0.0553094 0.086919397 1.1063307e-038
0.00050000002 0.100158 0.067722797 1.1063307e-038
0.076499999 0.063545197 0.088444903 1.8331226e-040
0.05875 0.098878503 0.081854098 1.1063307e-038
-0.03475 0.079802103 0.0439854 1.1063307e-038
-0.032749999 0.035118699 0.047166798 1.1063307e-038
0.055 0.087663896 0.087130703 1.1063307e-038
-0.035999998 0.116892 0.038302999 1.1063307e-038
-0.02025 0.035614301 0.051663298 1.1063307e-038
-0.061749998 0.120069 0.030557999 1.1063307e-038
-0.0080000004 0.110597 0.053596899 1.8331226e-040
0.06075 0.0577772 0.092425697 1.1063307e-038
0.0115 0.039168201 0.0775913 1.1063307e-038
0.0015 0.046898901 0.072167203 1.1063307e-038
0.0515 0.044177499 0.085624598 1.1063307e-038
0.072750002 0.060350899 0.090832099 2.341841e-038
0 0.046811201 0.071326703 1.1063307e-038
0.064999998 0.063795097 0.092075698 1.1063307e-038
0.050999999 0.044126 0.085144401 1.1063307e-038
0.064499997 0.063787296 0.091962203 1.1063307e-038
0.014 0.163956 0.0190695 2.341841e-038
0.050500002 0.044087399 0.084784202 2.341841e-038
0.046500001 0.043753002 0.0816627 2.341841e-038
0.00575 0.179639 -0.040311001 2.341841e-038
-0.016000001 0.044588499 0.063406102 1.8331226e-040
-0.0022499999 0.071756698 0.0819856 1.8331226e-040
0.072999999 0.071422003 0.086064503 2.341841e-038
-0.032499999 0.13820399 0.034345601 1.1063307e-038
0.02375 0.160365 0.0251687 2.341841e-038
0.0515 0.12222 0.066167198 2.341841e-038
0.054000001 0.0528154 0.0899368 1.1063307e-038
-0.016000001 0.0467088 0.0569143 2.341841e-038
0.056499999 0.047278699 0.089267701 1.1063307e-038
0.043499999 0.118504 0.077896401 1.1063307e-038
-0.01575 0.036012098 0.067873202 1.1063307e-038
0.062749997 0.077224799 0.082702696 1.1063307e-038
0.076250002 0.051642001 0.084646001 1.1063307e-038
0.028999999 0.044126 0.085144401 1.1063307e-038
0.0285 0.044126 0.085144401 1.1063307e-038
0.057999998 0.0634588 0.0873909 1.8331226e-040
0.03875 0.099298403 0.089544699 1.8331226e-040
0.0735 0.079412803 0.066637903 1.8331226e-040
-0.0070000002 0.060577799 0.070946202 1.8331226e-040
0.0060000001 0.050781701 0.082966603 1.8331226e-040
0.027249999 0.169118 0.0179177 1.1063307e-038
-0.043249998 0.094711304 0.035860099 1.1063307e-038
-0.003 0.158071 0.020476799 1.1063307e-038
-0.017000001 0.088250302 0.054545801 1.1063307e-038
0.078249998 0.068021998 0.085707001 1.1063307e-038
-0.0077499999 0.094198003 0.072034501 1.8331226e-040
-0.01425 0.0440685 0.065088898 2.341841e-038
-0.00575 0.111349 0.0547942 2.341841e-038
0.065499999 0.061165199 0.0928744 1.8331226e-040
-0.0052499999 0.124744 0.0388139 1.1063307e-038
0.049249999 0.076420002 0.090017803 1.1063307e-038
-0.032000002 0.14109901 0.034975599 1.1063307e-038
0.051750001 0.070962802 0.088777699 1.1063307e-038
0.052499998 0.097111501 0.086645603 1.1063307e-038
-0.02375 0.12902699 0.0384253 1.1063307e-038
0.059749998 0.059095699 0.092082903 1.1063307e-038
-0.01175 0.037734799 0.070870496 1.1063307e-038
-0.01325 0.037642099 0.070030198 1.1063307e-038
0.02 0.0437272 0.081422597 1.1063307e-038
0.0285 0.17428701 0.016512301 1.8331226e-040
-0.015 0.14083999 0.026849501 1.8331226e-040
-0.01175 0.041887902 0.070739299 1.8331226e-040
-0.0049999999 0.0580144 0.072746202 1.1063307e-038
-0.057250001 0.140166 0.028374201 1.1063307e-038
-0.060249999 0.126011 0.035001099 1.1063307e-038
-0.0072499998 0.053985801 0.052571502 1.8331226e-040
0.046750002 0.0415546 0.080467299 1.8331226e-040
-0.023250001 0.0503584 0.044205502 1.1063307e-038
-0.01125 0.162894 -0.0091193505 2.341841e-038
0.0047499998 0.122541 0.054798499 1.8331226e-040
0.055750001 0.0989995 0.084009796 1.8331226e-040
-0.046999998 0.101728 0.023153299 1.8331226e-040
0.012 0.18041401 -0.0415967 1.1063307e-038
0.065499999 0.063802898 0.0921892 1.1063307e-038
0.00575 0.051507201 0.0833252 1.1063307e-038
-0.033500001 0.038713399 0.047790401 1.1063307e-038
-0.046500001 0.087929703 0.0308879 1.8331226e-040
0.064999998 0.0424392 0.082266398 1.8331226e-040
-0.04225 0.093352199 0.036749002 1.8331226e-040
0.059749998 0.106794 0.076343298 2.341841e-038
0.014 0.0467126 0.083577 2.341841e-038
0.069750004 0.091467597 0.0723942 1.8331226e-040
-0.0094999997 0.114589 0.048331901 1.1063307e-038
0.012 0.168382 0.018299799 1.1063307e-038
-0.0385 0.078707702 0.039152902 1.1063307e-038
0.0080000004 0.166917 0.0194446 1.8331226e-040
0.068000004 0.072186098 0.078986697 1.8331226e-040
-0.01525 0.16289601 -0.0088494001 1.1063307e-038
0.0175 0.036698502 0.080239199 1.1063307e-038
-0.046999998 0.103024 0.0208674 1.8331226e-040
-0.0145 0.042350698 0.068576403 1.1063307e-038
0.041000001 0.110571 0.084124103 1.1063307e-038
-0.0155 0.0422091 0.067255802 1.1063307e-038
-0.052000001 0.112632 0.0382981 1.8331226e-040
-0.04775 0.088471301 0.028598201 2.341841e-038
0.0305 0.130458 0.0601741 1.1063307e-038
-0.0035000001 0.109509 0.060539801 1.1063307e-038
-0.036499999 0.153914 0.0296224 1.1063307e-038
-0.060249999 0.128922 0.0358852 1.8331226e-040
-0.0077499999 0.12725499 0.0304265 1.1063307e-038
0.0089999996 0.044519398 0.075896397 1.1063307e-038
0.0135 0.0406553 0.0785482 1.1063307e-038
0.052749999 0.0722849 0.088436402 1.1063307e-038
0.042750001 0.097939499 0.089432202 1.1063307e-038
-0.047499999 0.104232 0.0170561 2.341841e-038
