# .PCD v0.7 - Point Cloud Data file format
VERSION 0.7
FIELDS x y z rgb
SIZE 4 4 4 4
TYPE F F F F
COUNT 1 1 1 1
WIDTH 916
HEIGHT 1
VIEWPOINT 0 0 0 1 0 0 0
POINTS 916
DATA ascii
-0.0053941719 0.05319383 0.057584435 2.3418052e-038
-0.0049513476 0.053212151 0.057352979 2.3418052e-038
-0.0045637107 0.053217757 0.057014938 2.3418052e-038
-0.0040657055 0.0532488 0.056890063 2.3418052e-038
-0.0035125145 0.053292762 0.056871787 2.3418052e-038
-0.002959331 0.053336732 0.056853507 2.3418052e-038
-0.0023510084 0.053393509 0.056941722 2.3418052e-038
-0.0017426371 0.05345019 0.05703003 2.3418052e-038
-0.0011895014 0.053494155 0.057011653 2.3418052e-038
-0.00063631416 0.053538125 0.056993369 2.3418052e-038
-0.0001383099 0.053569265 0.056868501 2.3418052e-038
0.00041483319 0.053613227 0.056850135 2.3418052e-038
0.00091283815 0.053644273 0.05672526 2.3418052e-038
0.0014108424 0.053675417 0.056600392 2.3418052e-038
0.0019088467 0.05370656 0.056475524 2.3418052e-038
0.0024620302 0.053750522 0.05645724 2.3418052e-038
0.0030703528 0.053807311 0.056545462 2.3418052e-038
0.0036787239 0.053863991 0.056633767 2.3418052e-038
0.0042870427 0.053920772 0.056721982 2.3418052e-038
0.0048344294 0.053957164 0.056692 2.3418052e-038
0.0053295568 0.053984471 0.056561325 2.3418052e-038
0.0058246376 0.054011878 0.056430563 2.3418052e-038
0.0062674591 0.054030202 0.056199107 2.3418052e-038
0.0067102835 0.054048523 0.055967648 2.3418052e-038
0.0071008485 0.054057766 0.055635493 2.3418052e-038
0.0074913641 0.054067105 0.055303257 2.3418052e-038
0.007881932 0.054076348 0.054971103 2.3418052e-038
0.0083247535 0.054094668 0.054739647 2.3418052e-038
0.0087152682 0.054104012 0.054407403 2.3418052e-038
0.009102907 0.054109517 0.054069363 2.3418052e-038
0.0095457323 0.054127842 0.053837899 2.3418052e-038
0.0099885529 0.054146167 0.053606439 2.3418052e-038
0.010431377 0.054164492 0.053374983 2.3418052e-038
0.010929378 0.054195631 0.053250115 2.3418052e-038
0.011424508 0.054222938 0.053119447 2.3418052e-038
0.011971891 0.054259326 0.053089458 2.3418052e-038
0.012571536 0.0543047 0.053160179 2.3418052e-038
0.013171223 0.054350179 0.053230979 2.3418052e-038
0.013718606 0.054386567 0.053201005 2.3418052e-038
0.014161432 0.054404892 0.052969549 2.3418052e-038
0.014708823 0.05444118 0.052939568 2.3418052e-038
0.015151648 0.054459505 0.052708112 2.3418052e-038
0.015646765 0.054486908 0.052577432 2.3418052e-038
0.016037289 0.054496154 0.052245196 2.3418052e-038
0.01642785 0.05450549 0.051913042 2.3418052e-038
0.016818367 0.054514833 0.051580798 2.3418052e-038
0.01726119 0.054533157 0.051349338 2.3418052e-038
0.017651707 0.054542396 0.051017102 2.3418052e-038
0.017990008 0.054542657 0.050584253 2.3418052e-038
0.018380525 0.054551996 0.050252009 2.3418052e-038
0.018771049 0.054561235 0.049919765 2.3418052e-038
0.01916161 0.054570574 0.049587611 2.3418052e-038
0.019499868 0.054570835 0.049154676 2.3418052e-038
0.019890385 0.054580178 0.048822433 2.3418052e-038
0.02033321 0.054598503 0.048590973 2.3418052e-038
0.020776028 0.054616824 0.048359517 2.3418052e-038
0.021166597 0.054626066 0.04802737 2.3418052e-038
0.021661667 0.054653473 0.047896601 2.3418052e-038
0.022104494 0.054671798 0.047665145 2.3418052e-038
0.022599621 0.054699104 0.047534473 2.3418052e-038
0.022990135 0.054708444 0.047202229 2.3418052e-038
0.023432961 0.054726768 0.04697077 2.3418052e-038
0.023875786 0.054745093 0.046739314 2.3418052e-038
0.024266347 0.054754335 0.046407167 2.3418052e-038
0.024761427 0.054781742 0.046276398 2.3418052e-038
0.025204252 0.054800063 0.046044942 2.3418052e-038
0.025699379 0.05482737 0.045914266 2.3418052e-038
0.026142195 0.054845698 0.04568281 2.3418052e-038
0.026585022 0.054864019 0.045451347 2.3418052e-038
0.027027847 0.054882344 0.045219891 2.3418052e-038
0.027418362 0.054891687 0.044887651 2.3418052e-038
0.02786118 0.054910012 0.044656195 2.3418052e-038
0.028251747 0.05491925 0.044324048 2.3418052e-038
0.028642263 0.054928593 0.0439918 2.3418052e-038
0.0290299 0.054934096 0.04365376 2.3418052e-038
0.029417546 0.054939598 0.043315709 2.3418052e-038
0.02980523 0.054945108 0.04297775 2.3418052e-038
0.030192873 0.054950606 0.042639706 2.3418052e-038
0.030525325 0.054943398 0.042195078 2.3418052e-038
0.030912967 0.0549489 0.04185703 2.3418052e-038
0.031245472 0.054941576 0.04141248 2.3418052e-038
0.031577926 0.054934267 0.040967848 2.3418052e-038
0.031965572 0.054939769 0.040629804 2.3418052e-038
0.032298028 0.054932553 0.040185172 2.3418052e-038
0.032685712 0.054938056 0.039847206 2.3418052e-038
0.033073358 0.054943562 0.03950917 2.3418052e-038
0.033460993 0.054949068 0.039171118 2.3418052e-038
0.033903811 0.054967392 0.038939659 2.3418052e-038
0.034401827 0.054998536 0.038814794 2.3418052e-038
0.035120498 0.055080857 0.039116185 2.3418052e-038
0.035839193 0.055163283 0.039417583 2.3418052e-038
0.0365027 0.055232786 0.039612379 2.3418052e-038
0.03726501 0.055312876 0.03999706 2.3418052e-038
0.037864704 0.05535825 0.040067866 2.3418052e-038
0.038516652 0.05541271 0.040239364 2.3418052e-038
0.0391686 0.055467062 0.040410858 2.3418052e-038
0.039820604 0.055521514 0.040582452 2.3418052e-038
0.040472552 0.05557587 0.040753946 2.3418052e-038
0.04107219 0.055621348 0.040824663 2.3418052e-038
0.041619629 0.055657633 0.040794767 2.3418052e-038
0.042219266 0.055703107 0.040865488 2.3418052e-038
0.042714395 0.055730414 0.040734813 2.3418052e-038
0.043261781 0.055766802 0.040704835 2.3418052e-038
0.043756858 0.055794109 0.04057407 2.3418052e-038
0.044251986 0.055821516 0.040443391 2.3418052e-038
0.044694804 0.05583984 0.040211935 2.3418052e-038
0.045137633 0.055858161 0.039980471 2.3418052e-038
0.045580454 0.055876486 0.039749019 2.3418052e-038
0.045970973 0.055885728 0.039416779 2.3418052e-038
0.046466094 0.055913135 0.039286099 2.3418052e-038
0.046908919 0.05593146 0.039054643 2.3418052e-038
0.047351737 0.055949781 0.038823187 2.3418052e-038
0.047846869 0.055977087 0.038692519 2.3418052e-038
0.048341952 0.056004494 0.03856175 2.3418052e-038
0.048732519 0.056013737 0.0382296 2.3418052e-038
0.049227599 0.056041144 0.038098834 2.3418052e-038
0.049670413 0.056059469 0.037867378 2.3418052e-038
0.05006098 0.056068707 0.037535228 2.3418052e-038
0.050451498 0.05607805 0.03720298 2.3418052e-038
0.050894316 0.056096375 0.036971524 2.3418052e-038
0.051232576 0.056096636 0.036538593 2.3418052e-038
0.051675402 0.056114957 0.036307134 2.3418052e-038
0.052013662 0.056115221 0.035874195 2.3418052e-038
0.052351918 0.056115478 0.035441257 2.3418052e-038
0.052742437 0.056124818 0.035109024 2.3418052e-038
0.053080693 0.056125075 0.034676086 2.3418052e-038
0.053418957 0.056125328 0.034243144 2.3418052e-038
0.053809468 0.056134671 0.033910908 2.3418052e-038
0.054200038 0.05614391 0.03357875 2.3418052e-038
0.054538287 0.056144271 0.033145811 2.3418052e-038
0.054876555 0.056144532 0.032712881 2.3418052e-038
0.055214766 0.056144785 0.03227986 2.3418052e-038
0.055553023 0.056145046 0.031846918 2.3418052e-038
0.055839021 0.056136325 0.031313289 2.3418052e-038
0.056177229 0.056136586 0.030880269 2.3418052e-038
0.056410931 0.056118775 0.030245846 2.3418052e-038
0.056592375 0.056091983 0.02951074 2.3418052e-038
0.056817379 0.05606287 0.02885882 2.3418052e-038
0.056984287 0.056017183 0.028094424 2.3418052e-038
0.057151251 0.05597141 0.027330117 2.3418052e-038
0.057318207 0.055925738 0.026565809 2.3418052e-038
0.057485167 0.055880062 0.025801498 2.3418052e-038
0.057541762 0.055808652 0.024824008 2.3418052e-038
0.057653531 0.055750158 0.023953112 2.3418052e-038
0.057875682 0.0557172 0.023295393 2.3418052e-038
0.057821903 0.055620246 0.022104735 2.3418052e-038
0.057878539 0.055548932 0.021127338 2.3418052e-038
0.057769589 0.055439163 0.019830091 2.3418052e-038
0.057605505 0.05531656 0.018426342 2.3418052e-038
0.05755173 0.055219609 0.017235672 2.3418052e-038
0.056835908 0.054969016 0.014766224 2.3418052e-038
0.057002865 0.05492324 0.014001915 2.3418052e-038
-0.054853212 0.048074439 0.034382068 2.3418052e-038
-0.054468617 0.048079804 0.034038171 2.3418052e-038
-0.053967558 0.048111085 0.033919152 2.3418052e-038
-0.053466503 0.048142273 0.033800136 2.3418052e-038
-0.052790694 0.048212338 0.034018524 2.3418052e-038
-0.051765468 0.048359957 0.034911536 2.3418052e-038
-0.050914947 0.048468705 0.035467241 2.3418052e-038
-0.050180953 0.04855163 0.035797976 2.3418052e-038
-0.049505144 0.048621692 0.03601636 2.3418052e-038
-0.048771139 0.048704613 0.036347095 2.3418052e-038
-0.047978859 0.048800502 0.03679036 2.3418052e-038
-0.047244821 0.048883524 0.037121184 2.3418052e-038
-0.046569049 0.048953485 0.037339482 2.3418052e-038
-0.045893241 0.04902355 0.037557866 2.3418052e-038
-0.045275714 0.049080655 0.037663724 2.3418052e-038
-0.044722524 0.049124517 0.037645441 2.3418052e-038
-0.044114195 0.049181104 0.037733659 2.3418052e-038
-0.043505818 0.049237687 0.03782196 2.3418052e-038
-0.042952631 0.049281452 0.03780368 2.3418052e-038
-0.042344302 0.049338032 0.037891891 2.3418052e-038
-0.041846294 0.049369175 0.037767023 2.3418052e-038
-0.041237921 0.049425758 0.037855327 2.3418052e-038
-0.040739965 0.049456801 0.03773037 2.3418052e-038
-0.040241953 0.049487844 0.037605498 2.3418052e-038
-0.039688766 0.049531717 0.037587214 2.3418052e-038
-0.039245944 0.049550038 0.037355755 2.3418052e-038
-0.038747933 0.049581081 0.037230883 2.3418052e-038
-0.038194742 0.049624942 0.037212603 2.3418052e-038
-0.037696779 0.049655985 0.037087642 2.3418052e-038
-0.037198778 0.049687129 0.03696277 2.3418052e-038
-0.036700767 0.049718175 0.036837902 2.3418052e-038
-0.036257952 0.0497365 0.036606442 2.3418052e-038
-0.035815127 0.049754824 0.036374986 2.3418052e-038
-0.035206754 0.049811404 0.03646329 2.3418052e-038
-0.034763929 0.049829729 0.036231834 2.3418052e-038
-0.032886505 0.050179671 0.038771294 2.3418052e-038
-0.032498866 0.050185274 0.03843325 2.3418052e-038
-0.031669803 0.050292838 0.038947813 2.3418052e-038
-0.031226983 0.050311163 0.038716353 2.3418052e-038
-0.029625474 0.050597299 0.040722877 2.3418052e-038
-0.028741226 0.050717685 0.041344032 2.3418052e-038
-0.028243219 0.050748724 0.04121916 2.3418052e-038
-0.024544943 0.051519524 0.047275562 2.3418052e-038
-0.022281276 0.051958706 0.050561044 2.3418052e-038
-0.021397028 0.052079093 0.051182196 2.3418052e-038
-0.02073347 0.052148394 0.051377092 2.3418052e-038
-0.020069957 0.052217793 0.051571898 2.3418052e-038
-0.019571953 0.052248839 0.051447023 2.3418052e-038
-0.019129129 0.052267164 0.051215563 2.3418052e-038
-0.017637946 0.052527763 0.053008996 2.3418052e-038
-0.016974436 0.052597173 0.053203803 2.3418052e-038
-0.016255688 0.052679192 0.053505279 2.3418052e-038
-0.015592176 0.052748591 0.053700086 2.3418052e-038
-0.014707926 0.052868877 0.054321237 2.3418052e-038
-0.013989231 0.052950997 0.054622624 2.3418052e-038
-0.013380853 0.053007588 0.054710936 2.3418052e-038
-0.012717347 0.053076893 0.054905735 2.3418052e-038
-0.011833096 0.053197272 0.055526886 2.3418052e-038
-0.010948845 0.053317655 0.056148037 2.3418052e-038
-0.010285335 0.053386956 0.056342844 2.3418052e-038
-0.0096218185 0.053456262 0.056537651 2.3418052e-038
-0.0089582633 0.05352566 0.056732535 2.3418052e-038
-0.0081291962 0.053633228 0.057247099 2.3418052e-038
-0.0074104974 0.053715348 0.057548493 2.3418052e-038
-0.006691806 0.053797472 0.05784988 2.3418052e-038
-0.0061386125 0.053841241 0.057831597 2.3418052e-038
-0.0056406045 0.05387238 0.057706729 2.3418052e-038
-0.0051426003 0.053903427 0.057581861 2.3418052e-038
-0.0046997787 0.053921752 0.057350397 2.3418052e-038
-0.0042569581 0.053940073 0.057118941 2.3418052e-038
-0.0037589967 0.053971112 0.056993984 2.3418052e-038
-0.003260989 0.054002263 0.056869116 2.3418052e-038
-0.002652613 0.054058846 0.05695742 2.3418052e-038
-0.0020994679 0.054102607 0.056939047 2.3418052e-038
-0.0015462798 0.054146472 0.056920763 2.3418052e-038
-0.00099309161 0.054190334 0.056902476 2.3418052e-038
-0.00043989514 0.054234095 0.056884199 2.3418052e-038
0.00011324522 0.054277964 0.056865826 2.3418052e-038
0.00066643348 0.054321826 0.056847543 2.3418052e-038
0.0011644422 0.054352865 0.056722675 2.3418052e-038
0.0016624513 0.054383911 0.056597799 2.3418052e-038
0.0022155915 0.054427776 0.056579433 2.3418052e-038
0.0028239712 0.05448436 0.056667738 2.3418052e-038
0.0034322951 0.054540947 0.056755953 2.3418052e-038
0.0040406715 0.054597531 0.056844257 2.3418052e-038
0.0046403734 0.0546427 0.056915056 2.3418052e-038
0.0051354514 0.054670006 0.056784291 2.3418052e-038
0.0056305779 0.054697312 0.056653611 2.3418052e-038
0.0060733985 0.054715641 0.056422155 2.3418052e-038
0.0065162247 0.054733962 0.056190696 2.3418052e-038
0.0069590453 0.054752287 0.05595924 2.3418052e-038
0.0074018659 0.054770608 0.055727784 2.3418052e-038
0.0077923853 0.054779951 0.055395547 2.3418052e-038
0.0081829485 0.05478929 0.0550634 2.3418052e-038
0.0086257709 0.054807611 0.054831941 2.3418052e-038
0.009016281 0.054817054 0.054499697 2.3418052e-038
0.0094068442 0.054826394 0.054167543 2.3418052e-038
0.0098496657 0.054844722 0.053936087 2.3418052e-038
0.010292487 0.054863047 0.053704627 2.3418052e-038
0.010787569 0.054890353 0.053573869 2.3418052e-038
0.011282705 0.054917559 0.05344319 2.3418052e-038
0.011830089 0.054953847 0.053413201 2.3418052e-038
0.012429785 0.054999121 0.053484008 2.3418052e-038
0.012977178 0.055035315 0.053454027 2.3418052e-038
0.013524613 0.055071604 0.053424135 2.3418052e-038
0.014072006 0.055107795 0.053394154 2.3418052e-038
0.014567082 0.055135101 0.053263396 2.3418052e-038
0.015062215 0.055162407 0.053132717 2.3418052e-038
0.015505033 0.055180732 0.052901261 2.3418052e-038
0.015947858 0.055199057 0.052669801 2.3418052e-038
0.016338373 0.055208396 0.052337557 2.3418052e-038
0.016728932 0.055217743 0.052005403 2.3418052e-038
0.017119447 0.055227179 0.051673166 2.3418052e-038
0.01756227 0.0552455 0.05144171 2.3418052e-038
0.017952831 0.055254843 0.051109564 2.3418052e-038
0.018291047 0.055255197 0.050676532 2.3418052e-038
0.018681606 0.05526454 0.050344385 2.3418052e-038
0.019072121 0.05527398 0.050012141 2.3418052e-038
0.019462628 0.055283323 0.049679905 2.3418052e-038
0.019853195 0.055292659 0.049347751 2.3418052e-038
0.020243712 0.055302005 0.049015507 2.3418052e-038
0.020686535 0.055320326 0.048784047 2.3418052e-038
0.021129353 0.055338651 0.048552591 2.3418052e-038
0.021624489 0.055365957 0.048421923 2.3418052e-038
0.022015003 0.0553753 0.048089672 2.3418052e-038
0.02251013 0.055402607 0.047959004 2.3418052e-038
0.022952955 0.055420931 0.047727548 2.3418052e-038
0.023343462 0.055430271 0.0473953 2.3418052e-038
0.023786288 0.055448595 0.047163844 2.3418052e-038
0.024176804 0.055457935 0.046831604 2.3418052e-038
0.02461963 0.055476259 0.046600148 2.3418052e-038
0.025114754 0.055503566 0.046469469 2.3418052e-038
0.02560989 0.055530872 0.046338797 2.3418052e-038
0.026052708 0.055549201 0.046107341 2.3418052e-038
0.026495531 0.055567522 0.045875885 2.3418052e-038
0.026938349 0.055585846 0.045644425 2.3418052e-038
0.027381174 0.055604171 0.045412969 2.3418052e-038
0.027823998 0.055622492 0.045181513 2.3418052e-038
0.028214507 0.055631835 0.044849265 2.3418052e-038
0.02865733 0.05565016 0.044617806 2.3418052e-038
0.029047847 0.055659503 0.044285566 2.3418052e-038
0.029386103 0.055659957 0.043852638 2.3418052e-038
0.029776664 0.0556693 0.043520484 2.3418052e-038
0.030167179 0.05567864 0.04318824 2.3418052e-038
0.030499635 0.055671424 0.042743616 2.3418052e-038
0.030887267 0.05567703 0.042405564 2.3418052e-038
0.031219767 0.055669814 0.041961018 2.3418052e-038
0.031552229 0.055662695 0.041516386 2.3418052e-038
0.031939868 0.055668198 0.041178346 2.3418052e-038
0.032272357 0.055661086 0.040733799 2.3418052e-038
0.032604814 0.055653866 0.040289167 2.3418052e-038
0.032992449 0.055659473 0.03995112 2.3418052e-038
0.033380099 0.055664979 0.039613079 2.3418052e-038
0.033712596 0.055657867 0.039168533 2.3418052e-038
0.034155421 0.055676188 0.038937073 2.3418052e-038
0.034708563 0.055719953 0.038918708 2.3418052e-038
0.035372116 0.055789355 0.039113596 2.3418052e-038
0.036035635 0.055858657 0.039308395 2.3418052e-038
0.036754329 0.055940781 0.039609786 2.3418052e-038
0.037461467 0.056007653 0.039887868 2.3418052e-038
0.038113471 0.056061912 0.040059451 2.3418052e-038
0.038765471 0.056116071 0.040231042 2.3418052e-038
0.039417434 0.056170229 0.040402532 2.3418052e-038
0.040017124 0.056215398 0.040473334 2.3418052e-038
0.040669087 0.056269649 0.040644836 2.3418052e-038
0.041268788 0.056314822 0.040715639 2.3418052e-038
0.041868482 0.056360092 0.040786438 2.3418052e-038
0.042415872 0.056396291 0.04075646 2.3418052e-038
0.042963307 0.056432579 0.040726565 2.3418052e-038
0.043510698 0.056468766 0.04069658 2.3418052e-038
0.043953527 0.056487095 0.040465128 2.3418052e-038
0.044448651 0.056514401 0.040334448 2.3418052e-038
0.044891477 0.056532722 0.040102992 2.3418052e-038
0.045334294 0.056551047 0.039871532 2.3418052e-038
0.045829378 0.056578353 0.039740775 2.3418052e-038
0.046219945 0.056587692 0.03940862 2.3418052e-038
0.046715029 0.056614999 0.039277855 2.3418052e-038
0.047157843 0.056633327 0.039046399 2.3418052e-038
0.047652967 0.056660634 0.038915724 2.3418052e-038
0.048148055 0.05668794 0.038784962 2.3418052e-038
0.04859088 0.056706261 0.038553506 2.3418052e-038
0.049033701 0.056724586 0.03832205 2.3418052e-038
0.04952883 0.056751892 0.038191371 2.3418052e-038
0.049919344 0.056761231 0.037859131 2.3418052e-038
0.05036217 0.05677956 0.037627675 2.3418052e-038
0.050752729 0.056788899 0.037295517 2.3418052e-038
0.051143244 0.056798242 0.036963277 2.3418052e-038
0.051533807 0.056807581 0.036631122 2.3418052e-038
0.051924322 0.056816924 0.036298882 2.3418052e-038
0.052262571 0.056817383 0.035865951 2.3418052e-038
0.052653085 0.056826726 0.035533711 2.3418052e-038
0.052991342 0.056827087 0.035100773 2.3418052e-038
0.053329602 0.056827534 0.034667838 2.3418052e-038
0.053667806 0.056827892 0.034234814 2.3418052e-038
0.054058369 0.056837235 0.03390266 2.3418052e-038
0.05439657 0.056837693 0.033469643 2.3418052e-038
0.054787133 0.056847036 0.033137485 2.3418052e-038
0.055125389 0.05684739 0.032704551 2.3418052e-038
0.055463608 0.056847852 0.03227153 2.3418052e-038
0.055801857 0.056848213 0.031838596 2.3418052e-038
0.056140114 0.056848571 0.031405654 2.3418052e-038
0.056373749 0.056831062 0.030771162 2.3418052e-038
0.05660744 0.056813549 0.030136751 2.3418052e-038
0.056841079 0.05679604 0.029502252 2.3418052e-038
0.05701378 0.056758139 0.028749552 2.3418052e-038
0.057235904 0.056725487 0.028091831 2.3418052e-038
0.05740286 0.056680012 0.027327528 2.3418052e-038
0.057514627 0.056621816 0.026456632 2.3418052e-038
0.057736699 0.05658916 0.025798829 2.3418052e-038
0.057793286 0.056518149 0.024821343 2.3418052e-038
0.057905056 0.056459952 0.023950454 2.3418052e-038
0.05812718 0.056427296 0.023292733 2.3418052e-038
0.058073383 0.056330841 0.022102075 2.3418052e-038
0.058185153 0.056272645 0.021231186 2.3418052e-038
0.05796586 0.056137931 0.019720854 2.3418052e-038
0.057912074 0.056041475 0.018530196 2.3418052e-038
0.057582453 0.055881221 0.016806789 2.3418052e-038
0.057307921 0.055733789 0.015189781 2.3418052e-038
0.057088632 0.055599071 0.013679449 2.3418052e-038
-0.05444774 0.04875939 0.033591855 2.3418052e-038
-0.05383021 0.048816293 0.033697709 2.3418052e-038
-0.053329151 0.04884747 0.03357869 2.3418052e-038
-0.052595131 0.048929997 0.033909421 2.3418052e-038
-0.051628124 0.049063962 0.034689989 2.3418052e-038
-0.050777633 0.049172204 0.035245597 2.3418052e-038
-0.049985379 0.049267586 0.035688769 2.3418052e-038
-0.049193129 0.049362972 0.036131933 2.3418052e-038
-0.048575595 0.049419876 0.036237787 2.3418052e-038
-0.047666866 0.049540982 0.036905836 2.3418052e-038
-0.046932802 0.049623501 0.03723665 2.3418052e-038
-0.046257034 0.049693268 0.037454948 2.3418052e-038
-0.045639493 0.049750071 0.037560802 2.3418052e-038
-0.045025006 0.049806833 0.037660807 2.3418052e-038
-0.044416625 0.049863219 0.037749108 2.3418052e-038
-0.043808296 0.049919702 0.037837323 2.3418052e-038
-0.043255098 0.049963366 0.037819035 2.3418052e-038
-0.042646758 0.050019749 0.03790725 2.3418052e-038
-0.042148754 0.050050799 0.037782382 2.3418052e-038
-0.04159556 0.05009456 0.037764095 2.3418052e-038
-0.041042369 0.05013822 0.037745811 2.3418052e-038
-0.040599544 0.050156545 0.037514351 2.3418052e-038
-0.039991207 0.050213028 0.03760257 2.3418052e-038
-0.039493196 0.05024397 0.037477694 2.3418052e-038
-0.039050378 0.050262298 0.037246238 2.3418052e-038
-0.03855237 0.050293341 0.037121367 2.3418052e-038
-0.038054358 0.050324388 0.036996499 2.3418052e-038
-0.037445981 0.05038077 0.037084799 2.3418052e-038
-0.03700316 0.050399091 0.036853343 2.3418052e-038
-0.036505148 0.050430134 0.036728468 2.3418052e-038
-0.03606233 0.050448459 0.036497008 2.3418052e-038
-0.03556437 0.050479505 0.036372054 2.3418052e-038
-0.035011176 0.05052327 0.036353767 2.3418052e-038
-0.034513164 0.050554208 0.036228899 2.3418052e-038
-0.033904787 0.050610695 0.036317199 2.3418052e-038
-0.033461966 0.05062902 0.036085743 2.3418052e-038
-0.032577701 0.050748907 0.036706891 2.3418052e-038
-0.031693481 0.050868787 0.037327949 2.3418052e-038
-0.031029912 0.050937891 0.037522838 2.3418052e-038
-0.02981458 0.051133994 0.038783416 2.3418052e-038
-0.025564324 0.052028492 0.045905646 2.3418052e-038
-0.022638408 0.052618314 0.050470058 2.3418052e-038
-0.021643769 0.052763537 0.051304385 2.3418052e-038
-0.020925064 0.052845363 0.051605765 2.3418052e-038
-0.020261494 0.052914463 0.051800661 2.3418052e-038
-0.019653162 0.052970946 0.051888868 2.3418052e-038
-0.01921034 0.052989271 0.051657412 2.3418052e-038
-0.018657144 0.053032938 0.051639128 2.3418052e-038
-0.017221108 0.053279813 0.05332597 2.3418052e-038
-0.016557543 0.053349018 0.053520858 2.3418052e-038
-0.015783649 0.053443465 0.05392883 2.3418052e-038
-0.01500976 0.053538006 0.054336801 2.3418052e-038
-0.014291008 0.053619836 0.054638281 2.3418052e-038
-0.013627485 0.053688932 0.054833077 2.3418052e-038
-0.012963966 0.053758036 0.055027883 2.3418052e-038
-0.012190028 0.05385258 0.055435944 2.3418052e-038
-0.011305762 0.053972468 0.056057088 2.3418052e-038
-0.01064224 0.054041572 0.056251895 2.3418052e-038
-0.0099786725 0.054110672 0.056446776 2.3418052e-038
-0.0093703419 0.054167151 0.056534991 2.3418052e-038
-0.0085964445 0.054261602 0.056942962 2.3418052e-038
-0.0078776916 0.054343425 0.057244442 2.3418052e-038
-0.0071589863 0.054425251 0.05754583 2.3418052e-038
-0.0064402809 0.054507073 0.057847213 2.3418052e-038
-0.0058870846 0.05455083 0.057828933 2.3418052e-038
-0.0053890795 0.054581873 0.057704061 2.3418052e-038
-0.0048910696 0.054612827 0.057579193 2.3418052e-038
-0.0044482448 0.054631148 0.057347737 2.3418052e-038
-0.0039502401 0.05466219 0.057222862 2.3418052e-038
-0.0035074188 0.054680515 0.056991402 2.3418052e-038
-0.002954226 0.05472428 0.056973118 2.3418052e-038
-0.0024010763 0.05476794 0.056954745 2.3418052e-038
-0.0019030637 0.054798987 0.056829877 2.3418052e-038
-0.001294686 0.054855365 0.056918178 2.3418052e-038
-0.00074153743 0.054899134 0.056899808 2.3418052e-038
-0.00018834445 0.054942895 0.056881525 2.3418052e-038
0.00036484911 0.054986563 0.056863241 2.3418052e-038
0.00091804191 0.055030324 0.056844957 2.3418052e-038
0.0014160078 0.05506127 0.056719992 2.3418052e-038
0.0019692006 0.055105031 0.056701709 2.3418052e-038
0.0025775821 0.055161417 0.056790013 2.3418052e-038
0.0031859146 0.055217903 0.05687822 2.3418052e-038
0.0037942959 0.055274282 0.056966528 2.3418052e-038
0.0043417374 0.055310376 0.056936637 2.3418052e-038
0.0048891334 0.055346567 0.056906648 2.3418052e-038
0.0054365266 0.055382654 0.056876667 2.3418052e-038
0.0058793519 0.055400979 0.056645211 2.3418052e-038
0.0063744783 0.055428285 0.056514539 2.3418052e-038
0.0068172989 0.055446606 0.056283083 2.3418052e-038
0.0072078146 0.055455949 0.055950839 2.3418052e-038
0.0076506361 0.055474274 0.055719379 2.3418052e-038
0.0080411946 0.055483714 0.055387225 2.3418052e-038
0.0084317047 0.055493154 0.055054989 2.3418052e-038
0.0088745309 0.055511478 0.054823533 2.3418052e-038
0.0092650419 0.055520922 0.054491296 2.3418052e-038
0.0096556051 0.055530261 0.054159135 2.3418052e-038
0.010150688 0.055557568 0.054028373 2.3418052e-038
0.010593512 0.055575892 0.053796917 2.3418052e-038
0.011088639 0.055603098 0.053666238 2.3418052e-038
0.011636036 0.055639185 0.053636257 2.3418052e-038
0.01223574 0.055684261 0.053707056 2.3418052e-038
0.012783176 0.055720352 0.053677164 2.3418052e-038
0.013330569 0.055756543 0.053647187 2.3418052e-038
0.013877971 0.05579263 0.053617205 2.3418052e-038
0.014373097 0.055819839 0.053486526 2.3418052e-038
0.01486823 0.055847149 0.05335585 2.3418052e-038
0.015311049 0.055865474 0.053124391 2.3418052e-038
0.015806181 0.05589268 0.052993715 2.3418052e-038
0.016196698 0.05590212 0.052661479 2.3418052e-038
0.016639516 0.055920444 0.052430019 2.3418052e-038
0.017030032 0.055929784 0.052097775 2.3418052e-038
0.017420547 0.05593922 0.051765539 2.3418052e-038
0.017811107 0.055948664 0.051433384 2.3418052e-038
0.018201612 0.0559581 0.051101148 2.3418052e-038
0.018592127 0.055967543 0.050768912 2.3418052e-038
0.018982688 0.055976883 0.050436758 2.3418052e-038
0.019373203 0.055986326 0.050104514 2.3418052e-038
0.019763717 0.055995766 0.049772274 2.3418052e-038
0.020154275 0.05600521 0.049440119 2.3418052e-038
0.020649359 0.056032419 0.049309362 2.3418052e-038
0.021039916 0.056041855 0.048977207 2.3418052e-038
0.021535002 0.056069065 0.048846446 2.3418052e-038
0.021977825 0.056087386 0.04861499 2.3418052e-038
0.022368386 0.056096829 0.048282836 2.3418052e-038
0.022811204 0.05611515 0.048051376 2.3418052e-038
0.023201717 0.056124594 0.047719136 2.3418052e-038
0.023644542 0.056142919 0.04748768 2.3418052e-038
0.02408736 0.05616124 0.047256224 2.3418052e-038
0.024530184 0.056179564 0.047024764 2.3418052e-038
0.024973011 0.056197893 0.046793308 2.3418052e-038
0.025468143 0.056225095 0.046662629 2.3418052e-038
0.025910968 0.05624342 0.046431173 2.3418052e-038
0.026353786 0.056261744 0.046199717 2.3418052e-038
0.026848869 0.056288954 0.046068951 2.3418052e-038
0.027239429 0.05629839 0.045736797 2.3418052e-038
0.027734512 0.0563256 0.045606036 2.3418052e-038
0.028177336 0.056343928 0.04537458 2.3418052e-038
0.028567895 0.056353364 0.045042425 2.3418052e-038
0.029010721 0.056371689 0.044810966 2.3418052e-038
0.029401228 0.056381132 0.044478726 2.3418052e-038
0.029739486 0.056381591 0.044045795 2.3418052e-038
0.030129993 0.056391031 0.043713555 2.3418052e-038
0.030468246 0.056391489 0.04328062 2.3418052e-038
0.030858757 0.056400929 0.042948384 2.3418052e-038
0.031249275 0.056410369 0.04261614 2.3418052e-038
0.031526536 0.056390632 0.04206492 2.3418052e-038
0.031859033 0.05638352 0.041620385 2.3418052e-038
0.032246664 0.056389123 0.041282333 2.3418052e-038
0.03252393 0.056369387 0.040731113 2.3418052e-038
0.032911573 0.056374989 0.040393073 2.3418052e-038
0.0332992 0.056380589 0.040055025 2.3418052e-038
0.033631701 0.056373578 0.03961049 2.3418052e-038
0.03401934 0.056379184 0.039272439 2.3418052e-038
0.034462161 0.056397509 0.039040983 2.3418052e-038
0.034960166 0.056428552 0.038916115 2.3418052e-038
0.035568506 0.056484934 0.039004326 2.3418052e-038
0.036287256 0.056566756 0.039305806 2.3418052e-038
0.037005961 0.056648582 0.03960719 2.3418052e-038
0.037657972 0.056702536 0.039778773 2.3418052e-038
0.03836225 0.056765374 0.040051047 2.3418052e-038
0.039014261 0.056819331 0.040222626 2.3418052e-038
0.039613966 0.056864303 0.040293429 2.3418052e-038
0.040265977 0.056918263 0.040465008 2.3418052e-038
0.040865682 0.056963332 0.040535808 2.3418052e-038
0.041465379 0.057008408 0.04060661 2.3418052e-038
0.04206508 0.057053376 0.04067741 2.3418052e-038
0.042664789 0.057098452 0.040748209 2.3418052e-038
0.043212224 0.057134539 0.04071831 2.3418052e-038
0.043707311 0.057161845 0.040587552 2.3418052e-038
0.044150133 0.057180174 0.040356092 2.3418052e-038
0.044645261 0.057207379 0.040225416 2.3418052e-038
0.045088086 0.057225704 0.039993957 2.3418052e-038
0.045583211 0.05725291 0.039863281 2.3418052e-038
0.04602604 0.057271231 0.039631825 2.3418052e-038
0.046521176 0.05729844 0.039501145 2.3418052e-038
0.046963997 0.057316765 0.039269689 2.3418052e-038
0.047459081 0.057343971 0.039138928 2.3418052e-038
0.047901906 0.057362296 0.038907468 2.3418052e-038
0.048397031 0.057389606 0.038776789 2.3418052e-038
0.048839856 0.057407927 0.038545333 2.3418052e-038
0.049334984 0.057435136 0.038414653 2.3418052e-038
0.049777806 0.057453457 0.038183201 2.3418052e-038
0.050220624 0.057471782 0.037951741 2.3418052e-038
0.050611142 0.057481222 0.037619501 2.3418052e-038
0.051001657 0.057490565 0.037287261 2.3418052e-038
0.051392216 0.057500005 0.036955107 2.3418052e-038
0.051782731 0.057509445 0.036622867 2.3418052e-038
0.052120935 0.057510007 0.03618985 2.3418052e-038
0.052511495 0.057519346 0.035857696 2.3418052e-038
0.052849695 0.057519902 0.03542468 2.3418052e-038
0.05318794 0.05752046 0.034991741 2.3418052e-038
0.053526197 0.057520919 0.03455881 2.3418052e-038
0.053864397 0.057521477 0.034125794 2.3418052e-038
0.054254964 0.057530817 0.033793632 2.3418052e-038
0.054645479 0.05754026 0.033461396 2.3418052e-038
0.054983675 0.057540815 0.033028375 2.3418052e-038
0.055321928 0.057541274 0.032595444 2.3418052e-038
0.055712439 0.057550717 0.032263204 2.3418052e-038
0.055998381 0.057542291 0.031729486 2.3418052e-038
0.056336626 0.057542849 0.031296551 2.3418052e-038
0.056622576 0.057534426 0.030762836 2.3418052e-038
0.056856211 0.057517212 0.030128343 2.3418052e-038
0.057089847 0.057499908 0.029493842 2.3418052e-038
0.057210211 0.05745342 0.028640365 2.3418052e-038
0.057487532 0.057433583 0.02808924 2.3418052e-038
0.05759928 0.057375792 0.027218349 2.3418052e-038
0.057821363 0.057343334 0.026560547 2.3418052e-038
0.057933111 0.057285443 0.025689654 2.3418052e-038
0.058100048 0.057240266 0.024925351 2.3418052e-038
0.058156613 0.057169653 0.02394787 2.3418052e-038
0.058323517 0.057124469 0.023183485 2.3418052e-038
0.058324881 0.057041239 0.022099422 2.3418052e-038
0.058436636 0.056983445 0.021228533 2.3418052e-038
0.05816213 0.056836609 0.019611621 2.3418052e-038
0.05810833 0.056740653 0.018420968 2.3418052e-038
0.057833817 0.056593917 0.016804066 2.3418052e-038
0.057228196 0.056370959 0.014547637 2.3418052e-038
0.057395142 0.056325782 0.013783334 2.3418052e-038
-0.053075317 0.049578294 0.033582117 2.3418052e-038
-0.052399531 0.049647663 0.033800408 2.3418052e-038
-0.051432591 0.049780924 0.03458079 2.3418052e-038
-0.050523832 0.049901329 0.035248827 2.3418052e-038
-0.049731568 0.049996309 0.035691991 2.3418052e-038
-0.048997588 0.050078433 0.03602263 2.3418052e-038
-0.048263561 0.050160658 0.036353357 2.3418052e-038
-0.047413047 0.050268304 0.036908958 2.3418052e-038
-0.046620827 0.050363187 0.037352029 2.3418052e-038
-0.046003282 0.050419889 0.037457883 2.3418052e-038
-0.045327496 0.050489254 0.037676174 2.3418052e-038
-0.044663921 0.050558157 0.037871059 2.3418052e-038
-0.044110768 0.050601725 0.037852686 2.3418052e-038
-0.043557569 0.050645381 0.037834402 2.3418052e-038
-0.043004371 0.050688952 0.037816115 2.3418052e-038
-0.04250636 0.050719991 0.037691243 2.3418052e-038
-0.041897975 0.050776176 0.037779544 2.3418052e-038
-0.041344825 0.05081984 0.03776117 2.3418052e-038
-0.04084681 0.050850783 0.037636299 2.3418052e-038
-0.040348798 0.050881732 0.037511423 2.3418052e-038
-0.039795604 0.050925393 0.03749314 2.3418052e-038
-0.039352782 0.050943717 0.037261683 2.3418052e-038
-0.038854774 0.05097466 0.037136808 2.3418052e-038
-0.038356766 0.051005602 0.037011936 2.3418052e-038
-0.037803605 0.051049165 0.036993563 2.3418052e-038
-0.037305601 0.051080216 0.036868691 2.3418052e-038
-0.036862776 0.05109854 0.036637235 2.3418052e-038
-0.036364768 0.051129483 0.036512364 2.3418052e-038
-0.035866756 0.051160425 0.036387488 2.3418052e-038
-0.035313558 0.051204093 0.036369205 2.3418052e-038
-0.03481555 0.051235035 0.036244333 2.3418052e-038
-0.034262352 0.051278599 0.036226045 2.3418052e-038
-0.033764385 0.051309641 0.036101092 2.3418052e-038
-0.033211187 0.051353209 0.0360828 2.3418052e-038
-0.032657985 0.051396765 0.036064513 2.3418052e-038
-0.031939272 0.051478393 0.036365904 2.3418052e-038
-0.031386074 0.051521957 0.036347616 2.3418052e-038
-0.025424996 0.052804571 0.046773706 2.3418052e-038
-0.023050731 0.0532654 0.050272491 2.3418052e-038
-0.021890556 0.053448085 0.051426474 2.3418052e-038
-0.021116652 0.053542227 0.051834445 2.3418052e-038
-0.020453079 0.05361113 0.052029334 2.3418052e-038
-0.019844692 0.053667415 0.052117635 2.3418052e-038
-0.019291539 0.053710978 0.052099261 2.3418052e-038
-0.018848717 0.053729299 0.051867802 2.3418052e-038
-0.017578123 0.053937323 0.05323505 2.3418052e-038
-0.016859403 0.054018851 0.05353643 2.3418052e-038
-0.015975123 0.054138333 0.054157574 2.3418052e-038
-0.015201172 0.054232478 0.054565638 2.3418052e-038
-0.014592834 0.054288764 0.054653846 2.3418052e-038
-0.013874117 0.054370288 0.054955225 2.3418052e-038
-0.01321054 0.054439191 0.055150114 2.3418052e-038
-0.012326258 0.054558676 0.055771261 2.3418052e-038
-0.011607499 0.0546402 0.056072723 2.3418052e-038
-0.010999157 0.054696482 0.056160949 2.3418052e-038
-0.010390771 0.054752667 0.056249239 2.3418052e-038
-0.0097824316 0.054808948 0.056337446 2.3418052e-038
-0.0090636685 0.054890472 0.056638926 2.3418052e-038
-0.0083449529 0.054971997 0.05694031 2.3418052e-038
-0.0076261908 0.055053521 0.057241779 2.3418052e-038
-0.0069074724 0.05513515 0.05754317 2.3418052e-038
-0.0062438967 0.055203944 0.057738058 2.3418052e-038
-0.0056906985 0.055247612 0.057719775 2.3418052e-038
-0.0051375479 0.055291172 0.05770139 2.3418052e-038
-0.0046395394 0.055322219 0.057576526 2.3418052e-038
-0.0041967183 0.055340547 0.057345066 2.3418052e-038
-0.0036987048 0.055371489 0.057220191 2.3418052e-038
-0.0032006952 0.055402432 0.057095319 2.3418052e-038
-0.0027026818 0.055433374 0.056970451 2.3418052e-038
-0.0022046766 0.055464417 0.056845576 2.3418052e-038
-0.0016515225 0.055507984 0.056827202 2.3418052e-038
-0.0010431363 0.055564266 0.056915507 2.3418052e-038
-0.00048993423 0.055607833 0.056897216 2.3418052e-038
6.3259504e-005 0.055651493 0.056878932 2.3418052e-038
0.0006716022 0.055707678 0.056967139 2.3418052e-038
0.0011696157 0.055738624 0.056842275 2.3418052e-038
0.0017779979 0.055794913 0.056930572 2.3418052e-038
0.0023311952 0.05583857 0.056912288 2.3418052e-038
0.0029395383 0.055894751 0.057000503 2.3418052e-038
0.0034927356 0.055938415 0.056982219 2.3418052e-038
0.0040953672 0.055987023 0.057058904 2.3418052e-038
0.0046427641 0.056023121 0.057028916 2.3418052e-038
0.0051378962 0.05605023 0.05689824 2.3418052e-038
0.0056330338 0.056077436 0.056767568 2.3418052e-038
0.0061281184 0.056104541 0.056636799 2.3418052e-038
0.0065709427 0.056122866 0.056405343 2.3418052e-038
0.0070137642 0.056141187 0.056173887 2.3418052e-038
0.0074043218 0.056150734 0.05584174 2.3418052e-038
0.0078994101 0.05617784 0.055710971 2.3418052e-038
0.0082899686 0.05618738 0.055378824 2.3418052e-038
0.0086804759 0.05619682 0.055046581 2.3418052e-038
0.0090709813 0.056206357 0.054714344 2.3418052e-038
0.0095138066 0.056224681 0.054482885 2.3418052e-038
0.0099566281 0.056243002 0.054251429 2.3418052e-038
0.01039945 0.056261331 0.054019965 2.3418052e-038
0.010894584 0.05628844 0.053889286 2.3418052e-038
0.011441982 0.056324422 0.053859305 2.3418052e-038
0.011989428 0.056360517 0.053829417 2.3418052e-038
0.012536825 0.05639651 0.053799428 2.3418052e-038
0.013136585 0.056441382 0.053870317 2.3418052e-038
0.013683987 0.056477368 0.053840335 2.3418052e-038
0.014179114 0.056504574 0.05370966 2.3418052e-038
0.01467425 0.056531683 0.05357898 2.3418052e-038
0.015169377 0.056558892 0.053448301 2.3418052e-038
0.015612202 0.056577213 0.053216845 2.3418052e-038
0.016055029 0.056595538 0.052985389 2.3418052e-038
0.016497845 0.056613863 0.052753929 2.3418052e-038
0.01688836 0.056623302 0.052421693 2.3418052e-038
0.017278872 0.056632847 0.052089456 2.3418052e-038
0.01766938 0.056642286 0.051757213 2.3418052e-038
0.018059939 0.05665173 0.051425058 2.3418052e-038
0.018502764 0.056670051 0.051193602 2.3418052e-038
0.018840961 0.056670707 0.050760586 2.3418052e-038
0.019231474 0.056680147 0.05042835 2.3418052e-038
0.019621974 0.056689687 0.050096102 2.3418052e-038
0.020064799 0.056708016 0.049864646 2.3418052e-038
0.020507624 0.056726336 0.049633183 2.3418052e-038
0.02100276 0.056753442 0.049502511 2.3418052e-038
0.021445585 0.056771766 0.049271062 2.3418052e-038
0.021888411 0.056790091 0.049039595 2.3418052e-038
0.022331227 0.056808416 0.048808139 2.3418052e-038
0.022721734 0.056817956 0.048475895 2.3418052e-038
0.023164557 0.056836281 0.048244439 2.3418052e-038
0.023555115 0.056845725 0.047912296 2.3418052e-038
0.023945631 0.056855261 0.047580052 2.3418052e-038
0.02444076 0.05688237 0.047449376 2.3418052e-038
0.024883583 0.056900695 0.04721792 2.3418052e-038
0.02532641 0.05691902 0.046986461 2.3418052e-038
0.025821494 0.056946225 0.046855692 2.3418052e-038
0.026212052 0.056955669 0.046523549 2.3418052e-038
0.026707135 0.056982875 0.046392776 2.3418052e-038
0.02714996 0.057001196 0.04616132 2.3418052e-038
0.027592784 0.057019524 0.04592986 2.3418052e-038
0.028035602 0.057037845 0.045698404 2.3418052e-038
0.028478427 0.05705617 0.045466945 2.3418052e-038
0.02892125 0.057074491 0.045235485 2.3418052e-038
0.029311804 0.057083938 0.044903342 2.3418052e-038
0.029702317 0.057093475 0.044571105 2.3418052e-038
0.030092824 0.057102919 0.044238858 2.3418052e-038
0.030431071 0.057103574 0.043805931 2.3418052e-038
0.030821579 0.057113018 0.043473687 2.3418052e-038
0.031212093 0.057122555 0.043141451 2.3418052e-038
0.031550344 0.05712311 0.042708516 2.3418052e-038
0.031888548 0.057123769 0.042275496 2.3418052e-038
0.032165799 0.057104133 0.041724287 2.3418052e-038
0.032498296 0.057097219 0.041279741 2.3418052e-038
0.032830741 0.057090204 0.040835109 2.3418052e-038
0.033218369 0.057095911 0.040497065 2.3418052e-038
0.033550818 0.05708899 0.040052433 2.3418052e-038
0.033938453 0.057094596 0.039714392 2.3418052e-038
0.034326088 0.0571003 0.039376348 2.3418052e-038
0.034713767 0.057106003 0.039038397 2.3418052e-038
0.035211731 0.057136945 0.038913433 2.3418052e-038
0.035709742 0.057167888 0.038788561 2.3418052e-038
0.036428504 0.057249513 0.039090034 2.3418052e-038
0.037202407 0.057343658 0.039498005 2.3418052e-038
0.037854422 0.057397414 0.039669584 2.3418052e-038
0.038558766 0.057459954 0.039941944 2.3418052e-038
0.039158467 0.057504728 0.040012743 2.3418052e-038
0.0398628 0.057567365 0.040285103 2.3418052e-038
0.040462557 0.05761214 0.040355984 2.3418052e-038
0.04111458 0.057665899 0.040527564 2.3418052e-038
0.041714281 0.057710771 0.040598363 2.3418052e-038
0.042313997 0.057755642 0.040669162 2.3418052e-038
0.042913709 0.057800416 0.040739957 2.3418052e-038
0.043408845 0.057827622 0.040609278 2.3418052e-038
0.043903969 0.057854827 0.040478606 2.3418052e-038
0.044399105 0.057881936 0.04034793 2.3418052e-038
0.044841934 0.057900265 0.040116474 2.3418052e-038
0.04533701 0.057927467 0.039985705 2.3418052e-038
0.045832139 0.057954673 0.039855029 2.3418052e-038
0.046274967 0.057972997 0.03962357 2.3418052e-038
0.046770111 0.05800011 0.039492898 2.3418052e-038
0.047212925 0.058018431 0.039261438 2.3418052e-038
0.047708057 0.058045641 0.039130766 2.3418052e-038
0.048203193 0.058072746 0.039000086 2.3418052e-038
0.04864601 0.058091071 0.038768627 2.3418052e-038
0.049141105 0.058118276 0.038637865 2.3418052e-038
0.049583923 0.058136601 0.038406406 2.3418052e-038
0.050026748 0.058154922 0.03817495 2.3418052e-038
0.050417308 0.058164366 0.037842795 2.3418052e-038
0.050860133 0.05818269 0.037611336 2.3418052e-038
0.051250629 0.058192234 0.037279103 2.3418052e-038
0.051641148 0.058201671 0.036946863 2.3418052e-038
0.052031651 0.058211207 0.036614619 2.3418052e-038
0.052369911 0.058211766 0.036181688 2.3418052e-038
0.052760415 0.058221307 0.035849448 2.3418052e-038
0.053046349 0.058213085 0.03531573 2.3418052e-038
0.05343686 0.058222525 0.034983493 2.3418052e-038
0.053722799 0.058214299 0.034449775 2.3418052e-038
0.054113306 0.058223844 0.034117542 2.3418052e-038
0.054451507 0.058224499 0.033684526 2.3418052e-038
0.054842062 0.058233943 0.033352371 2.3418052e-038
0.055232581 0.058243379 0.033020131 2.3418052e-038
0.055570778 0.058244038 0.032587115 2.3418052e-038
0.055961337 0.058253478 0.03225496 2.3418052e-038
0.056247219 0.058245353 0.031721156 2.3418052e-038
0.056533154 0.058237132 0.031187452 2.3418052e-038
0.05681904 0.058228903 0.030653644 2.3418052e-038
0.057104982 0.058220677 0.030119926 2.3418052e-038
0.057286285 0.058194783 0.029384658 2.3418052e-038
0.05746185 0.058161322 0.028637767 2.3418052e-038
0.057683975 0.058129061 0.027980058 2.3418052e-038
0.057906043 0.058096811 0.027322253 2.3418052e-038
0.058017764 0.058039214 0.026451368 2.3418052e-038
0.05818465 0.057994336 0.025686977 2.3418052e-038
0.058296394 0.05793684 0.0248161 2.3418052e-038
0.05846332 0.057891965 0.024051791 2.3418052e-038
0.058575019 0.057834364 0.02318082 2.3418052e-038
0.058686756 0.057776872 0.022309937 2.3418052e-038
0.058743317 0.057706658 0.021332463 2.3418052e-038
0.058523927 0.057573341 0.019822063 2.3418052e-038
0.058249392 0.057427309 0.01820516 2.3418052e-038
0.058085185 0.057306509 0.016801348 2.3418052e-038
0.057479531 0.057084654 0.014544928 2.3418052e-038
0.057646453 0.057039779 0.013780631 2.3418052e-038
-0.052320462 0.050340004 0.033466436 2.3418052e-038
-0.051120512 0.050523207 0.034696557 2.3418052e-038
-0.050211787 0.050643109 0.035364497 2.3418052e-038
-0.049419548 0.050737493 0.035807565 2.3418052e-038
-0.048685558 0.050819319 0.036138199 2.3418052e-038
-0.047776826 0.050939124 0.03680614 2.3418052e-038
-0.046984591 0.051033605 0.037249207 2.3418052e-038
-0.046308789 0.051102668 0.037467495 2.3418052e-038
-0.04563304 0.051171731 0.037685692 2.3418052e-038
-0.04502159 0.05122786 0.037779842 2.3418052e-038
-0.044413202 0.051283941 0.037868138 2.3418052e-038
-0.043860048 0.051327508 0.037849765 2.3418052e-038
-0.043306842 0.051370971 0.037831474 2.3418052e-038
-0.042753641 0.051414434 0.037813187 2.3418052e-038
-0.042200442 0.051457997 0.037794903 2.3418052e-038
-0.041702423 0.051488843 0.037670031 2.3418052e-038
-0.041094035 0.051544927 0.037758328 2.3418052e-038
-0.040596068 0.051575869 0.037633363 2.3418052e-038
-0.040042866 0.051619336 0.037615076 2.3418052e-038
-0.039600044 0.051637657 0.03738362 2.3418052e-038
-0.039102029 0.051668599 0.037258752 2.3418052e-038
-0.038604021 0.051699545 0.03713388 2.3418052e-038
-0.038106013 0.051730487 0.037009008 2.3418052e-038
-0.037607994 0.051761329 0.036884133 2.3418052e-038
-0.037109982 0.051792275 0.036759261 2.3418052e-038
-0.036612023 0.051823214 0.0366343 2.3418052e-038
-0.036169194 0.051841542 0.03640284 2.3418052e-038
-0.035615947 0.051885013 0.036384642 2.3418052e-038
-0.03511798 0.051915951 0.036259685 2.3418052e-038
-0.034564774 0.051959418 0.036241394 2.3418052e-038
-0.034011573 0.052002881 0.036223106 2.3418052e-038
-0.033568751 0.052021205 0.03599165 2.3418052e-038
-0.033015553 0.052064769 0.035973366 2.3418052e-038
-0.032407206 0.052120853 0.036061574 2.3418052e-038
-0.031854004 0.052164316 0.036043286 2.3418052e-038
-0.025892597 0.053441443 0.046469577 2.3418052e-038
-0.024235727 0.053736608 0.048582733 2.3418052e-038
-0.022082152 0.054145146 0.051655162 2.3418052e-038
-0.021363387 0.054226473 0.051956628 2.3418052e-038
-0.020644654 0.054307703 0.052258011 2.3418052e-038
-0.020091452 0.054351166 0.052239727 2.3418052e-038
-0.01948306 0.054407246 0.052328017 2.3418052e-038
-0.01904024 0.054425575 0.052096561 2.3418052e-038
-0.018376654 0.054494277 0.052291449 2.3418052e-038
-0.017050885 0.05471402 0.053765181 2.3418052e-038
-0.01605621 0.054858249 0.054599494 2.3418052e-038
-0.01544782 0.054914325 0.054687783 2.3418052e-038
-0.014839427 0.05497041 0.054776084 2.3418052e-038
-0.014175887 0.055039015 0.054970883 2.3418052e-038
-0.013291592 0.055158097 0.055592019 2.3418052e-038
-0.012572822 0.055239327 0.055893485 2.3418052e-038
-0.011854044 0.055320546 0.056194957 2.3418052e-038
-0.011245705 0.055376727 0.056283165 2.3418052e-038
-0.010692502 0.055420194 0.056264874 2.3418052e-038
-0.010139296 0.055463661 0.056246597 2.3418052e-038
-0.0095309038 0.055519741 0.056334887 2.3418052e-038
-0.0088673681 0.055588447 0.056529686 2.3418052e-038
-0.0082037877 0.055657152 0.056724571 2.3418052e-038
-0.0074298698 0.055750992 0.057132535 2.3418052e-038
-0.0067110965 0.055832226 0.057434008 2.3418052e-038
-0.0060475599 0.05590092 0.057628807 2.3418052e-038
-0.0054391725 0.055957012 0.057717096 2.3418052e-038
-0.0049411543 0.055987854 0.057592228 2.3418052e-038
-0.0043879561 0.056031417 0.057573937 2.3418052e-038
-0.0038899414 0.056062259 0.057449065 2.3418052e-038
-0.0034471203 0.056080583 0.057217605 2.3418052e-038
-0.002949151 0.056111529 0.057092648 2.3418052e-038
-0.0023959479 0.056154992 0.057074364 2.3418052e-038
-0.0018427497 0.056198556 0.057056073 2.3418052e-038
-0.0012895467 0.056242023 0.057037789 2.3418052e-038
-0.00073634472 0.056285586 0.057019506 2.3418052e-038
-0.00018318958 0.056329045 0.057001133 2.3418052e-038
0.00042520196 0.05638513 0.057089422 2.3418052e-038
0.00097840512 0.056428593 0.057071131 2.3418052e-038
0.0015316035 0.056472156 0.057052847 2.3418052e-038
0.0020848135 0.056515627 0.057034563 2.3418052e-038
0.0026379693 0.056559086 0.05701619 2.3418052e-038
0.0031911677 0.056602653 0.056997899 2.3418052e-038
0.0037443701 0.056646116 0.056979612 2.3418052e-038
0.0042918213 0.056682006 0.056949724 2.3418052e-038
0.0048392238 0.056717899 0.056919735 2.3418052e-038
0.0053343596 0.056745004 0.056789055 2.3418052e-038
0.0058294944 0.056772113 0.05665838 2.3418052e-038
0.0063246265 0.056799218 0.0565277 2.3418052e-038
0.0067674518 0.056817543 0.056296244 2.3418052e-038
0.0071579618 0.056827083 0.055964008 2.3418052e-038
0.0076007824 0.056845412 0.055732552 2.3418052e-038
0.008043604 0.056863733 0.055501085 2.3418052e-038
0.008434114 0.056873266 0.055168848 2.3418052e-038
0.0088769356 0.05689159 0.054937392 2.3418052e-038
0.0093197562 0.056909919 0.054705933 2.3418052e-038
0.0097625814 0.05692824 0.054474477 2.3418052e-038
0.010205402 0.056946564 0.054243021 2.3418052e-038
0.010700538 0.056973673 0.054112341 2.3418052e-038
0.011195674 0.057000779 0.053981666 2.3418052e-038
0.011743121 0.057036676 0.053951766 2.3418052e-038
0.012290522 0.057072565 0.053921778 2.3418052e-038
0.012890285 0.057117235 0.053992659 2.3418052e-038
0.013437738 0.057153128 0.053962771 2.3418052e-038
0.01398514 0.057189018 0.05393279 2.3418052e-038
0.01448027 0.057216126 0.05380211 2.3418052e-038
0.014975404 0.057243332 0.053671435 2.3418052e-038
0.01541823 0.057261653 0.053439979 2.3418052e-038
0.015913364 0.057288762 0.053309299 2.3418052e-038
0.016356189 0.057307083 0.053077843 2.3418052e-038
0.016746698 0.057316624 0.052745599 2.3418052e-038
0.017137205 0.057326067 0.052413359 2.3418052e-038
0.017527718 0.057335604 0.052081123 2.3418052e-038
0.017918225 0.057345148 0.051748879 2.3418052e-038
0.018308783 0.057354692 0.051416732 2.3418052e-038
0.018699288 0.057364233 0.051084496 2.3418052e-038
