# .PCD v0.7 - Point Cloud Data file format
VERSION 0.7
FIELDS x y z rgb
SIZE 4 4 4 4
TYPE F F F F
COUNT 1 1 1 1
WIDTH 19625
HEIGHT 1
VIEWPOINT 0 0 0 1 0 0 0
POINTS 19625
DATA ascii
0.047499999 0.0452592 0.08286 1.1063307e-038
-0.0385 0.038159199 0.0425894 2.341841e-038
-0.01125 0.082131401 0.075748399 1.1063307e-038
-0.012 0.037027199 0.070752397 1.1063307e-038
-0.04225 0.084982596 0.038521599 1.1063307e-038
0.034000002 0.038437899 0.083476998 1.1063307e-038
-0.03475 0.045874599 0.041808698 1.8331226e-040
-0.0070000002 0.038574301 0.072189197 1.8331226e-040
0.015 0.036564399 0.079038799 1.8331226e-040
-0.030999999 0.113984 0.037028901 2.341841e-038
0.062749997 0.0681789 0.087506801 1.8331226e-040
-0.0094999997 0.144999 0.0206219 1.8331226e-040
0.066749997 0.0591438 0.092764199 1.8331226e-040
-0.02 0.085379802 0.053223599 1.1063307e-038
0.07175 0.077634998 0.070353098 1.1063307e-038
0.03475 0.164739 0.0223678 1.8331226e-040
-0.037999999 0.038321398 0.044111598 2.341841e-038
0.052999999 0.083741397 0.088877797 1.1063307e-038
-0.052749999 0.123509 0.043134999 1.1063307e-038
0.056499999 0.066010803 0.085828498 1.1063307e-038
-0.017750001 0.095939502 0.054429099 1.1063307e-038
-0.01925 0.12754001 0.0371578 1.1063307e-038
-0.0145 0.038257599 0.069308102 1.1063307e-038
-0.022500001 0.112834 0.041983798 1.1063307e-038
0.0094999997 0.039089002 0.076871 1.1063307e-038
0.052000001 0.0580061 0.086674899 1.8331226e-040
0.01125 0.045605101 0.079616599 1.1063307e-038
0.045499999 0.17872199 0.0121904 1.1063307e-038
0.01725 0.038781799 0.080354102 1.1063307e-038
-0.011 0.16214301 -0.0085775899 2.341841e-038
0.033750001 0.037722599 0.083238497 1.1063307e-038
0.034499999 0.0384246 0.083356902 1.1063307e-038
0.063749999 0.059151798 0.092877798 1.8331226e-040
0.0042500002 0.035429101 0.0750793 1.1063307e-038
-0.036499999 0.045076799 0.0409231 2.341841e-038
0.0080000004 0.036282599 0.076517999 2.341841e-038
0.0155 0.036591198 0.079278901 2.341841e-038
0.0037499999 0.15154199 0.0208667 2.341841e-038
0.0067500002 0.036934201 0.076156102 2.341841e-038
0.054249998 0.058784001 0.087755099 1.8331226e-040
0.064000003 0.077808604 0.081503302 1.8331226e-040
-0.0042500002 0.047330599 0.069643803 1.1063307e-038
0.0135 0.116891 0.071553104 1.1063307e-038
0.011 0.039154999 0.077471301 1.1063307e-038
0.033500001 0.125183 0.071910299 1.1063307e-038
0.0099999998 0.036336198 0.076998197 1.1063307e-038
0.041499998 0.091985002 0.091807999 1.1063307e-038
0.06075 0.069215402 0.083906397 1.1063307e-038
-0.037999999 0.074300401 0.036862399 1.1063307e-038
0.0165 0.114269 0.074785396 1.1063307e-038
-0.0037499999 0.0393469 0.072907597 1.1063307e-038
-0.0062500001 0.0930788 0.076226801 1.1063307e-038
-0.035750002 0.037845202 0.0462703 1.8331226e-040
-0.00050000002 0.038745899 0.073749803 1.8331226e-040
0.024499999 0.17132901 0.016898399 2.341841e-038
-0.041749999 0.082120001 0.037883598 2.341841e-038
-0.021749999 0.066166803 0.0483936 2.341841e-038
-0.05675 0.131938 0.039563201 2.341841e-038
-0.043749999 0.0862104 0.036231499 2.341841e-038
0.06075 0.038158901 0.074712001 1.1063307e-038
-0.021 0.054154798 0.047116101 1.1063307e-038
-0.00025000001 0.0380661 0.073871702 1.1063307e-038
0.0165 0.127619 0.059459802 2.341841e-038
0.027249999 0.0447497 0.084542498 2.341841e-038
0.012 0.036430199 0.077838399 2.341841e-038
0.075999998 0.071812801 0.057638202 2.341841e-038
0.083750002 0.060345199 0.0757479 1.1063307e-038
-0.016249999 0.120369 0.036782701 1.8331226e-040
0.0062500001 0.181189 -0.041742299 1.1063307e-038
-0.0155 0.045795999 0.061601099 2.341841e-038
0.02825 0.16328 0.023386 1.8331226e-040
-0.0040000002 0.169651 -0.021154501 2.341841e-038
0.063500002 0.105909 0.072272599 2.341841e-038
-0.0037499999 0.064581297 0.077428199 2.341841e-038
-0.043749999 0.0847532 0.035594799 2.341841e-038
-0.02225 0.051844999 0.044961799 1.1063307e-038
-0.0015 0.152283 0.021500399 1.1063307e-038
-0.00825 0.0581889 0.052818701 1.1063307e-038
0.054499999 0.094382301 0.086407498 1.1063307e-038
0.0042500002 0.054201301 0.082718097 1.1063307e-038
0.01925 0.169112 0.017283199 2.341841e-038
0.061000001 0.115242 0.064730503 1.8331226e-040
-0.035500001 0.077552497 0.0422027 1.8331226e-040
0.0097500002 0.179639 -0.040453501 1.1063307e-038
-0.041499998 0.105158 0.032186698 1.1063307e-038
0.028000001 0.042763598 0.085267797 1.1063307e-038
-0.031750001 0.15045799 0.0357216 1.1063307e-038
0.051750001 0.080415897 0.089447103 1.1063307e-038
0.00075000001 0.16175801 0.020215901 1.1063307e-038
0.041000001 0.165425 0.018305199 1.1063307e-038
0.056249999 0.098979399 0.0836505 1.1063307e-038
0.050999999 0.0608017 0.087753303 1.1063307e-038
0.0097500002 0.16321599 0.0189439 2.341841e-038
0.0074999998 0.036269099 0.076397903 2.341841e-038
0.050500002 0.078421302 0.089789003 1.1063307e-038
0.062249999 0.069163904 0.083306499 1.1063307e-038
-0.0080000004 0.149377 0.0213775 1.1063307e-038
0.048 0.0784714 0.090581402 1.1063307e-038
0.04425 0.117837 0.078375399 1.1063307e-038
-0.015 0.0353432 0.068115197 1.1063307e-038
